# .PCD v0.7 - Point Cloud Data file format
VERSION 0.7
FIELDS x y z intensity
SIZE 4 4 4 4
TYPE F F F F
COUNT 1 1 1 1
WIDTH 1451
HEIGHT 1
VIEWPOINT 0 0 0 1 0 0 0
POINTS 1451
DATA ascii
11.842878 -4.463244 -1.2743921 0
3.9535625 -3.9246867 -0.46289784 0
nan nan nan 0
13.216036 6.9326897 -1.2348435 0
13.506964 0.84268618 -1.3460246 0
11.827848 -4.5047932 -1.2677652 0
3.9570537 -3.9570537 -0.46008468 0
14.544254 18.396408 -1.257762 0
12.957462 6.7366066 -1.2212011 0
13.455093 0.78995365 -1.3429337 0
11.937031 -4.5965443 -1.2767553 0
3.9841223 -4.0148358 -0.46203953 0
14.010399 17.588266 -1.2296288 0
12.70841 6.5452614 -1.1978636 0
13.513166 0.73657781 -1.3460246 0
11.946106 -4.6575918 -1.2730215 0
3.941793 -4.0014071 -0.4519209 0
14.24283 17.746197 -1.2642291 0
12.824946 6.5459185 -1.2141711 0
13.475783 0.6897279 -1.3420657 0
11.93605 -4.6993289 -1.2645603 0
3.906466 -3.9947267 -0.44463924 0
14.526649 17.951725 -1.3072736 0
12.963872 6.557045 -1.2327013 0
13.423652 0.63069522 -1.3389678 0
12.125731 -4.830318 -1.2797997 0
3.8663723 -3.9856088 -0.43701711 0
14.396197 17.670364 -1.3102087 0
12.360152 6.1922016 -1.182747 0
13.415494 0.58573306 -1.34032 0
12.072278 -4.8579206 -1.2713541 0
3.8499386 -3.9950922 -0.43178329 0
nan nan nan 0
11.364689 5.6414804 -1.0944279 0
13.437622 0.53266352 -1.3423064 0
12.094573 -4.9233961 -1.2711715 0
3.8444636 -4.021596 -0.42809215 0
12.583398 15.21612 -1.17308 0
12.689978 6.2414918 -1.2273031 0
13.399557 0.4796308 -1.3406737 0
12.191042 -5.0173192 -1.2786808 0
3.8162265 -4.0214634 -0.42171991 0
nan nan nan 0
12.279084 5.9809527 -1.1901376 0
13.376829 0.42973199 -1.3335147 0
12.178192 -5.0643048 -1.2676543 0
3.7915552 -4.0249076 -0.41382691 0
nan nan nan 0
12.578099 6.0696607 -1.2292362 0
13.407854 0.38388318 -1.3388301 0
12.193455 -5.1181455 -1.2710028 0
3.7898896 -4.0542173 -0.41144514 0
13.321365 15.752549 -1.2834778 0
12.352539 5.9050961 -1.212294 0
13.374471 0.32920071 -1.335354 0
12.328695 -5.2357602 -1.2755786 0
3.8057747 -4.1012392 -0.40988976 0
13.950701 16.368851 -1.3568894 0
12.215984 5.7849069 -1.2039365 0
13.360382 0.28219298 -1.3361965 0
12.311877 -5.2768774 -1.2685652 0
3.7571709 -4.078743 -0.40139738 0
nan nan nan 0
12.575909 5.8963399 -1.2420552 0
13.316557 0.23244135 -1.3317193 0
12.311335 -5.3301415 -1.2634265 0
3.7424781 -4.0927944 -0.39558992 0
12.114846 14.015389 -1.2077425 0
12.648993 5.8795185 -1.2547029 0
13.312377 0.18124016 -1.3312219 0
12.459929 -5.4513798 -1.2760251 0
3.731081 -4.1104813 -0.39013255 0
12.479975 14.331289 -1.255553 0
12.461785 5.7370515 -1.2412807 0
13.34801 0.13279541 -1.3323745 0
12.454135 -5.5033169 -1.2702971 0
3.722894 -4.1317916 -0.38598031 0
12.536528 14.280081 -1.2754529 0
12.630132 5.7505589 -1.262965 0
13.24397 0.076280631 -1.3219458 0
12.459822 -5.5657201 -1.2659389 0
3.6913209 -4.127068 -0.37941763 0
12.353697 13.987892 -1.2657118 0
12.342705 5.5755386 -1.2373307 0
13.264051 0.032410253 -1.3239323 0
12.563066 -5.6645241 -1.2760037 0
3.6830125 -4.1482768 -0.3752605 0
12.387566 13.923056 -1.2802837 0
12.690698 5.6741648 -1.2773626 0
13.219076 -0.013842989 -1.32177 0
12.563349 -5.7148585 -1.2658035 0
3.6727512 -4.164453 -0.37075248 0
11.971534 13.356554 -1.2510909 0
12.556008 5.5588136 -1.2689973 0
13.169185 -0.06205878 -1.3167953 0
12.555487 -5.7695694 -1.2599387 0
3.6445296 -4.1631122 -0.36459175 0
12.321915 13.636933 -1.2980943 0
12.627774 5.5300674 -1.2812767 0
13.163854 -0.11487921 -1.3162978 0
12.736056 -5.9145823 -1.2730176 0
3.6607511 -4.2156682 -0.36203271 0
12.191647 13.403142 -1.2987509 0
12.209388 5.2910657 -1.2484682 0
13.16829 -0.16548632 -1.3167953 0
12.737038 -5.9718871 -1.2728196 0
3.6161599 -4.1952791 -0.35428762 0
12.017557 13.114862 -1.2906805 0
12.64728 5.4310856 -1.2962428 0
13.073153 -0.20765176 -1.3073434 0
12.779736 -6.0464115 -1.2717249 0
3.6074865 -4.2163677 -0.34911528 0
11.997284 12.996779 -1.2957923 0
12.5432 5.3320251 -1.285964 0
13.112281 -0.25863683 -1.3090342 0
12.875329 -6.1494942 -1.2709204 0
3.588974 -4.2259884 -0.34396309 0
11.911329 12.809147 -1.3029157 0
12.177132 5.1212959 -1.25804 0
13.085813 -0.31066945 -1.3111204 0
12.855226 -6.2033901 -1.2688729 0
3.5576079 -4.2203078 -0.33663502 0
11.47553 12.245871 -1.2648209 0
12.411386 5.1663613 -1.2850116 0
13.06521 -0.35581616 -1.3045648 0
12.831096 -6.2442884 -1.2559779 0
3.567925 -4.2641649 -0.33421814 0
11.016491 11.669995 -1.2235891 0
12.337576 5.0826631 -1.2824833 0
13.103002 -0.40948927 -1.3131137 0
13.033166 -6.4102874 -1.2732657 0
3.5556467 -4.2812762 -0.3296617 0
11.470693 12.062264 -1.2837294 0
11.983262 4.8829603 -1.2482532 0
13.052228 -0.45351303 -1.3035717 0
12.999044 -6.4471269 -1.2643584 0
3.5464988 -4.302247 -0.32441449 0
11.48646 11.990531 -1.2951443 0
12.554338 5.062089 -1.3129528 0
13.030591 -0.50058478 -1.3015853 0
12.993736 -6.503942 -1.2584866 0
3.5308843 -4.315434 -0.31954876 0
11.262868 11.67119 -1.2821912 0
12.397178 4.9434643 -1.3039279 0
13.003718 -0.54956448 -1.2991023 0
13.124866 -6.6327224 -1.265887 0
3.5183997 -4.332479 -0.31399038 0
11.56187 11.893484 -1.3258252 0
12.007237 4.7370405 -1.267903 0
12.956677 -0.59968984 -1.2946329 0
13.098918 -6.6857553 -1.2556202 0
3.5074475 -4.3545971 -0.3086969 0
11.294231 11.533289 -1.3044564 0
12.362488 4.8249044 -1.3082167 0
12.889907 -0.64169753 -1.288177 0
13.214392 -6.800024 -1.2636185 0
3.4698079 -4.3403349 -0.30191845 0
11.031146 11.18235 -1.2831265 0
12.022845 4.6392298 -1.2771943 0
12.937376 -0.69160509 -1.2908819 0
13.281813 -6.8993492 -1.2620656 0
3.4571743 -4.3571796 -0.29636523 0
11.122393 11.18859 -1.3025936 0
11.834822 4.516912 -1.2599187 0
12.959332 -0.74496102 -1.2933606 0
13.276656 -6.964489 -1.2563164 0
3.4228046 -4.3464856 -0.28994119 0
10.774528 10.759494 -1.2732823 0
11.604749 4.3781261 -1.2401854 0
12.911681 -0.79197419 -1.2888989 0
13.366318 -7.0741138 -1.2566144 0
3.4377854 -4.398582 -0.28671202 0
11.021581 10.933447 -1.3118297 0
11.894902 4.4378591 -1.2783996 0
12.8643 -0.83189696 -1.2844374 0
13.514438 -7.2099762 -1.2700887 0
3.4064598 -4.3915815 -0.28154972 0
10.400521 10.241995 -1.2462627 0
10.940085 4.0360103 -1.1762393 0
12.90072 -0.88400704 -1.2884033 0
13.43936 -7.2363491 -1.2522242 0
3.3996868 -4.4161777 -0.27549985 0
10.757645 10.516289 -1.3002983 0
11.922147 4.3463774 -1.288973 0
12.852732 -0.9280597 -1.2839416 0
13.505091 -7.3357182 -1.2554449 0
3.3684347 -4.4089184 -0.27039209 0
nan nan nan 0
11.675517 4.2080493 -1.2650094 0
12.908485 -0.98645514 -1.2876309 0
13.699349 -7.5126104 -1.2625719 0
3.3584847 -4.4294538 -0.26408777 0
9.6148214 9.259016 -1.177206 0
11.506993 4.1019826 -1.2495002 0
12.885304 -1.0276736 -1.2856514 0
13.652938 -7.5461559 -1.2551131 0
3.3604097 -4.465898 -0.25965881 0
10.072744 9.6290874 -1.241199 0
11.203513 3.943182 -1.223197 0
12.831682 -1.0729959 -1.2807028 0
13.737608 -7.6619639 -1.257303 0
3.353092 -4.4903345 -0.25644258 0
9.8761482 9.3721142 -1.2223141 0
11.344112 3.9459982 -1.2433162 0
12.802711 -1.1223438 -1.2759855 0
13.833458 -7.7883921 -1.2577734 0
3.3262804 -4.4919295 -0.24990381 0
9.844409 9.2736578 -1.2260696 0
11.363473 3.9038854 -1.2480253 0
12.867675 -1.1778438 -1.2829014 0
12.986168 -7.3741727 -1.1753172 0
3.3040316 -4.4962487 -0.24361427 0
9.8446589 9.2060261 -1.236122 0
11.358455 3.8556757 -1.250146 0
12.863494 -1.2250193 -1.2806461 0
12.769432 -7.3131227 -1.1477833 0
3.322998 -4.5569677 -0.2403255 0
10.006873 9.2859497 -1.2640182 0
11.344471 3.802413 -1.2512127 0
12.809845 -1.2627883 -1.2757149 0
13.037738 -7.5273418 -1.1689676 0
3.2858949 -4.5409536 -0.23394412 0
9.6372519 8.8774405 -1.2247447 0
11.285801 3.7411642 -1.2475626 0
12.829651 -1.3145009 -1.2781806 0
12.997665 -7.5678592 -1.1599317 0
3.2548013 -4.5328727 -0.22705798 0
9.922575 9.073267 -1.2662394 0
11.205149 3.6667366 -1.2412425 0
12.77549 -1.3562857 -1.2710071 0
12.428843 -7.297791 -1.1014271 0
3.2941914 -4.6216974 -0.2249769 0
10.032172 9.1061945 -1.2902732 0
11.260267 3.6391375 -1.2542161 0
12.799862 -1.4085957 -1.2739606 0
11.990662 -7.0997343 -1.0575564 0
3.3206391 -4.6951175 -0.22192551 0
9.6690063 8.7121258 -1.2509116 0
11.392162 3.6335118 -1.2715646 0
12.83933 -1.4605869 -1.2761356 0
11.490007 -6.8602953 -1.0062145 0
3.2719257 -4.6623945 -0.21582817 0
9.8054495 8.7670841 -1.2757846 0
11.376524 3.582639 -1.2725558 0
12.73007 -1.497692 -1.2635794 0
11.015693 -6.6346064 -0.95787334 0
3.2720945 -4.6991711 -0.20996843 0
9.6135378 8.5322981 -1.2557964 0
11.389772 3.5387981 -1.2767191 0
12.699258 -1.5457754 -1.2611266 0
10.716825 -6.5133705 -0.92534798 0
3.3032575 -4.7811995 -0.20699768 0
9.5549412 8.4238138 -1.2579541 0
11.458843 3.5142574 -1.2914732 0
12.743378 -1.5963068 -1.2637904 0
10.248782 -6.2755418 -0.88461775 0
3.2914629 -4.8016644 -0.20227353 0
9.3768463 8.2030287 -1.2391344 0
11.486096 3.4744198 -1.2972691 0
12.944936 -1.6697677 -1.2820777 0
10.005586 -6.1771636 -0.8573215 0
3.240236 -4.7642841 -0.19415645 0
9.4096203 8.1710129 -1.2526804 0
11.545512 3.4462554 -1.3110551 0
nan nan nan 0
10.096601 -6.2870255 -0.8588348 0
3.2994215 -4.8934355 -0.19269115 0
9.0618811 7.8109717 -1.2131139 0
11.577292 3.4073825 -1.3174312 0
nan nan nan 0
10.065548 -6.3190031 -0.84981781 0
3.4389527 -5.1370459 -0.19643342 0
8.5833435 7.343832 -1.153409 0
11.565395 3.3578694 -1.3189222 0
4.3906217 -0.6162802 -0.43550563 0
10.088925 -6.3853502 -0.84957284 0
3.451534 -5.1949759 -0.19164889 0
9.2437382 7.8475847 -1.2509247 0
11.571959 3.3138349 -1.3267815 0
4.2059956 -0.60684258 -0.41742066 0
10.08277 -6.4333339 -0.84264261 0
3.4582334 -5.2506661 -0.18769799 0
9.3476601 7.8770385 -1.2718545 0
11.579593 3.2679646 -1.3283337 0
4.1053658 -0.607692 -0.4069207 0
9.8163052 -6.3140597 -0.81411368 0
3.3953309 -5.1965232 -0.17881043 0
9.3678122 7.835485 -1.2836095 0
11.610196 3.2307057 -1.3347353 0
4.1571894 -0.63168472 -0.41155383 0
9.440711 -6.1238441 -0.7809611 0
3.3872356 -5.2258635 -0.17286488 0
9.3422184 7.7560582 -1.2847697 0
11.684369 3.2030582 -1.3461196 0
4.2237558 -0.65764672 -0.41762644 0
9.1598101 -5.9894457 -0.75185817 0
3.4519534 -5.368722 -0.1704818 0
9.2789621 7.6435471 -1.2826345 0
11.757482 3.176815 -1.3618006 0
4.2065287 -0.67151785 -0.41542441 0
8.7841997 -5.7899127 -0.71538502 0
nan nan nan 0
9.2446394 7.558569 -1.2824841 0
11.798174 3.1392515 -1.367265 0
4.209022 -0.68774521 -0.41516536 0
8.5721931 -5.6953511 -0.69259667 0
nan nan nan 0
9.1785965 7.4486094 -1.2820492 0
11.86255 3.1076565 -1.377667 0
4.1918192 -0.70071787 -0.41297033 0
8.4314489 -5.6464944 -0.67577666 0
5.8815398 -9.3687105 -0.26261947 0
9.1909456 7.40028 -1.2881309 0
11.906602 3.0726063 -1.3901594 0
4.1890268 -0.71679598 -0.41371205 0
8.2082701 -5.5407176 -0.65604001 0
5.8420196 -9.3819466 -0.25080845 0
8.9312086 7.1424594 -1.2585014 0
11.950725 3.0395381 -1.3962433 0
4.1570292 -0.72701311 -0.41006887 0
7.9696541 -5.4222736 -0.63179421 0
5.9600797 -9.6501913 -0.24551024 0
9.0134525 7.1490979 -1.2761985 0
11.923326 2.981662 -1.4003237 0
4.1689744 -0.74561065 -0.41078046 0
7.7722154 -5.3317151 -0.61115265 0
5.7733312 -9.4249115 -0.2295894 0
8.7876263 6.9201484 -1.2506785 0
11.890559 2.9250026 -1.4016412 0
4.1612477 -0.75997871 -0.41103604 0
7.5845251 -5.2439437 -0.59466916 0
5.9283485 -9.7580919 -0.22521316 0
8.7572613 6.8443837 -1.2525997 0
11.841787 2.8713937 -1.3990712 0
4.1730456 -0.77870297 -0.41174585 0
7.3322382 -5.1093349 -0.57008815 0
6.0569344 -10.048624 -0.22118643 0
8.8560057 6.8694224 -1.2730199 0
11.78001 2.808567 -1.3926296 0
4.1653452 -0.79307532 -0.41052309 0
7.285121 -5.1162705 -0.56319892 0
5.9740086 -9.9937105 -0.20729749 0
8.1767464 6.2923961 -1.1810178 0
11.693035 2.7425764 -1.3853978 0
4.1379132 -0.8043288 -0.40737823 0
6.8959756 -4.880816 -0.52857274 0
5.9721856 -10.082342 -0.19431604 0
8.6765785 6.6265488 -1.2593484 0
11.712449 2.6997261 -1.3928373 0
4.1690397 -0.82624829 -0.41148677 0
6.6548114 -4.7468309 -0.50712109 0
5.9530005 -10.134481 -0.18463953 0
8.6497908 6.5536594 -1.2594765 0
11.590775 2.6269782 -1.3835205 0
4.1465406 -0.83759558 -0.40882111 0
6.5971322 -4.7422667 -0.49835309 0
6.3638182 -10.925359 -0.18537873 0
8.5893421 6.4584422 -1.2586261 0
11.508201 2.5618451 -1.376651 0
4.1628618 -0.85754192 -0.41000316 0
6.4215455 -4.6535497 -0.48087832 0
6.0631018 -10.493139 -0.16499135 0
8.6317921 6.4409728 -1.2728133 0
11.545442 2.525758 -1.3904444 0
4.1596909 -0.87279385 -0.41000316 0
6.2796345 -4.5859065 -0.46878254 0
6.9243946 -12.085782 -0.17747597 0
8.7353745 6.466197 -1.2940345 0
11.433442 2.4552922 -1.37788 0
4.1612458 -0.88981503 -0.4097406 0
6.1906223 -4.5557871 -0.45934212 0
6.9443331 -12.224236 -0.16686352 0
8.6502581 6.3542461 -1.2855669 0
11.373822 2.3968401 -1.3778039 0
4.1773386 -0.9092797 -0.41240367 0
6.0578103 -4.4923687 -0.44674334 0
6.9633589 -12.363015 -0.15354757 0
8.5520582 6.2339821 -1.2788116 0
11.333674 2.3450282 -1.3739383 0
4.1885338 -0.92857552 -0.41234639 0
5.9335966 -4.4340534 -0.43358931 0
nan nan nan 0
8.5106716 6.1539097 -1.2783802 0
11.219778 2.2765725 -1.369194 0
4.2093077 -0.9493804 -0.41549134 0
5.821785 -4.3838444 -0.42276129 0
7.5095191 -13.55869 -0.13796645 0
8.5781288 6.1594715 -1.298533 0
11.154311 2.2207541 -1.3662429 0
4.2686195 -0.97999692 -0.42248571 0
5.7461472 -4.359982 -0.41590008 0
7.6330895 -13.901773 -0.12733087 0
nan nan nan 0
11.103118 2.1662729 -1.3689592 0
4.2890868 -1.0012587 -0.42642364 0
5.6818414 -4.3456669 -0.41119778 0
7.5606127 -13.890208 -0.11592896 0
8.0000534 5.7000656 -1.2322272 0
10.89571 2.1258068 -1.3669837 0
4.3025689 -1.005198 -0.43712404 0
5.7090149 -4.3664503 -0.42575142 0
nan nan nan 0
8.1203318 5.8307528 -1.2522643 0
10.838798 2.1579375 -1.3608729 0
4.272079 -0.98079121 -0.43750346 0
5.77144 -4.382349 -0.43941808 0
nan nan nan 0
8.4318113 6.1036129 -1.300213 0
10.810664 2.1935604 -1.3642045 0
4.2559352 -0.96067756 -0.43856314 0
5.8668051 -4.4209542 -0.45316365 0
nan nan nan 0
8.4125042 6.1390028 -1.2990152 0
10.811881 2.2370648 -1.3654319 0
4.2106376 -0.9342469 -0.43582079 0
5.930542 -4.4349976 -0.46461311 0
5.9940014 -10.733798 -0.15664518 0
8.3052216 6.1030245 -1.2746078 0
10.764997 2.2685406 -1.3586024 0
4.1993885 -0.91484708 -0.43656316 0
6.1388345 -4.5557771 -0.48497814 0
5.9994631 -10.656026 -0.16862312 0
8.4096842 6.2296557 -1.2905922 0
10.828749 2.3254364 -1.3697276 0
4.1829586 -0.89522147 -0.43752852 0
6.1952558 -4.5625315 -0.49620125 0
5.5915427 -9.8468962 -0.16997994 0
8.0652037 6.020381 -1.2357551 0
10.795502 2.3616962 -1.3666592 0
4.1764059 -0.87706202 -0.43874559 0
6.3927836 -4.6719604 -0.51897383 0
5.5438905 -9.6723471 -0.18291974 0
8.3756666 6.3023548 -1.2814519 0
10.80107 2.4044304 -1.3704315 0
4.1744952 -0.86069798 -0.44046599 0
6.4174981 -4.6540337 -0.52792972 0
5.6516213 -9.7888956 -0.19927222 0
8.475832 6.4265141 -1.2928357 0
10.830941 2.4547663 -1.3714714 0
4.1632171 -0.8409642 -0.43966544 0
6.5530539 -4.712316 -0.54742628 0
5.7033296 -9.787509 -0.21355282 0
8.5079775 6.5001349 -1.2956758 0
10.783419 2.485584 -1.3646375 0
4.1414347 -0.82152861 -0.44003898 0
6.7144737 -4.7946939 -0.56536645 0
5.6833081 -9.6714878 -0.22518469 0
8.129693 6.2607064 -1.2344509 0
10.807615 2.534903 -1.3689212 0
4.153954 -0.80819923 -0.44329146 0
6.8983788 -4.8879404 -0.5882349 0
5.7491326 -9.7019186 -0.24213536 0
8.5113659 6.6044712 -1.2884437 0
10.832506 2.582665 -1.3693177 0
4.1667199 -0.79409057 -0.44507354 0
7.2749667 -5.1148291 -0.62498325 0
nan nan nan 0
8.4199905 6.5855198 -1.2727529 0
10.831923 2.6265221 -1.3724834 0
4.1791487 -0.78059655 -0.44834325 0
7.301486 -5.0935874 -0.63189965 0
5.815557 -9.6557932 -0.26563632 0
8.4861908 6.6875715 -1.2788068 0
10.836679 2.671773 -1.3704207 0
4.1820173 -0.76377189 -0.45056921 0
7.5141006 -5.1971912 -0.65810579 0
3.1471891 -5.1823277 -0.15135582 0
8.6398354 6.8625922 -1.3000634 0
10.927908 2.7367916 -1.383217 0
4.1845803 -0.7491554 -0.45131117 0
7.6551528 -5.2553411 -0.67536527 0
3.1686878 -5.1748819 -0.15783501 0
8.2818842 6.6279235 -1.2423407 0
10.826174 2.7555327 -1.3696897 0
4.1922174 -0.73316705 -0.45406741 0
7.9013824 -5.3798599 -0.70532489 0
3.1551299 -5.1125813 -0.16361485 0
8.5831451 6.9207792 -1.2815756 0
10.883735 2.8126986 -1.3742845 0
4.1898665 -0.71618706 -0.45576268 0
8.1653757 -5.5138378 -0.73391151 0
3.1781614 -5.1039438 -0.17109685 0
8.7073536 7.0762739 -1.2982152 0
10.93526 2.8708515 -1.3821721 0
4.2117524 -0.70556134 -0.45864025 0
8.3444786 -5.5945811 -0.75891751 0
3.236593 -5.1555719 -0.18066742 0
8.6859026 7.1118603 -1.2909528 0
10.900918 2.9045849 -1.3771696 0
3.993576 -0.65325749 -0.43531993 0
8.4682617 -5.6326933 -0.7754339 0
3.2108288 -5.0770664 -0.1845849 0
8.779439 7.2423596 -1.2987292 0
10.971597 2.9685826 -1.3835021 0
4.1822505 -0.66839075 -0.45785969 0
8.8046303 -5.8099947 -0.81168723 0
3.1576178 -4.9507446 -0.1876128 0
8.7522612 7.2765946 -1.2907833 0
10.998405 3.0212064 -1.3883353 0
4.2385745 -0.66071177 -0.46601722 0
9.1087561 -5.9628735 -0.84917301 0
3.1729131 -4.9347386 -0.19462088 0
8.840661 7.4050584 -1.2976224 0
10.997288 3.064292 -1.3855587 0
4.245801 -0.64590746 -0.46730673 0
9.1007872 -5.910121 -0.85402721 0
3.1555326 -4.8683896 -0.19854134 0
8.8948622 7.5034456 -1.3053011 0
11.024117 3.1174326 -1.3863791 0
4.3021731 -0.63759154 -0.47477445 0
9.1302643 -5.8817987 -0.86239433 0
3.1158233 -4.7687392 -0.2019098 0
8.7027607 7.4013934 -1.2713661 0
11.088961 3.1797085 -1.39599 0
4.3289952 -0.62536031 -0.47825086 0
8.9957352 -5.748589 -0.85706723 0
3.1441562 -4.7737999 -0.20860434 0
8.7367973 7.4856963 -1.2701746 0
11.101436 3.2294679 -1.3909222 0
nan nan nan 0
8.9769945 -5.6837959 -0.86233836 0
3.1579154 -4.7584476 -0.21440262 0
8.71488 7.5198283 -1.2646965 0
11.08567 3.2647927 -1.392342 0
nan nan nan 0
9.1428213 -5.7464056 -0.88591897 0
3.1724088 -4.7424674 -0.22118607 0
8.6845036 7.5493231 -1.2521008 0
11.138949 3.3312521 -1.3966569 0
nan nan nan 0
9.5227232 -5.9366007 -0.92850333 0
3.1812592 -4.7181859 -0.2265642 0
8.814332 7.7190819 -1.2686826 0
11.13306 3.3697512 -1.3931931 0
11.060143 -1.4286107 -1.2331653 0
9.8066168 -6.0637856 -0.96211565 0
3.1899488 -4.6938663 -0.23290122 0
8.7642756 7.7321868 -1.2572939 0
11.120503 3.412617 -1.3891327 0
11.173573 -1.4016452 -1.2472208 0
10.125511 -6.209784 -0.99951303 0
3.2352223 -4.7231541 -0.2409467 0
8.9099703 7.921772 -1.2720253 0
11.14961 3.4705818 -1.3924305 0
nan nan nan 0
10.477426 -6.3678703 -1.0424957 0
3.2020671 -4.6364646 -0.24404646 0
8.8261423 7.9053521 -1.253729 0
11.076098 3.490155 -1.3827075 0
11.158451 -1.3147657 -1.2503518 0
10.818924 -6.5238171 -1.0830865 0
3.2417204 -4.6572828 -0.25171965 0
8.9123678 8.0416479 -1.2595633 0
11.011888 3.5143414 -1.3701527 0
11.118764 -1.2668232 -1.2473278 0
11.256814 -6.7317281 -1.1336708 0
3.2270365 -4.6001363 -0.25614753 0
8.9570818 8.1417484 -1.2615488 0
10.998767 3.5567453 -1.3661177 0
11.103144 -1.2238369 -1.2490116 0
11.512257 -6.8273277 -1.1639293 0
3.2437184 -4.5880556 -0.26203176 0
8.4644642 7.7535353 -1.1862258 0
10.887008 3.564733 -1.3497958 0
11.122367 -1.1827483 -1.2526307 0
11.549381 -6.7922487 -1.1745832 0
3.2458608 -4.5555725 -0.26672497 0
9.1163311 8.4123087 -1.275328 0
10.826108 3.5908768 -1.3439449 0
11.096534 -1.1388862 -1.2531856 0
11.525805 -6.7216506 -1.183753 0
3.2536056 -4.5312076 -0.27282596 0
9.2319794 8.5818882 -1.2847831 0
10.817392 3.6341503 -1.3405467 0
11.085339 -1.0947409 -1.2573438 0
11.529432 -6.6645718 -1.1885167 0
3.2817321 -4.5352011 -0.27966535 0
8.9521923 8.3802443 -1.2390983 0
10.74824 3.6548138 -1.3276024 0
11.099605 -1.0550854 -1.2545733 0
11.903021 -6.822443 -1.2340972 0
3.2973979 -4.523519 -0.28455043 0
9.121891 8.6080666 -1.2563035 0
10.73521 3.6943338 -1.3236395 0
11.097972 -1.0119476 -1.2598495 0
12.100366 -6.8767576 -1.261732 0
3.2960403 -4.4870152 -0.28885785 0
9.2273989 8.7656612 -1.265857 0
10.749523 3.7454839 -1.3231401 0
11.116454 -0.97256368 -1.2615345 0
12.042105 -6.785377 -1.2652177 0
3.3211632 -4.4866567 -0.29645512 0
9.2721539 8.8792591 -1.2633007 0
10.740843 3.7866626 -1.3197422 0
11.094913 -0.92776585 -1.2626126 0
11.958813 -6.6780772 -1.2609954 0
3.3344126 -4.4702001 -0.30203015 0
9.2940607 8.9657698 -1.2593765 0
10.722195 3.8264384 -1.3132058 0
11.083161 -0.88588953 -1.2628628 0
11.925812 -6.6024246 -1.2645533 0
3.3385844 -4.441731 -0.30676755 0
9.3382998 9.0715904 -1.2604795 0
10.68984 3.8591204 -1.3069469 0
11.121158 -0.84596461 -1.2668128 0
11.840049 -6.4983616 -1.2624363 0
3.3636546 -4.4411006 -0.31440106 0
9.1099682 8.9149122 -1.2250801 0
10.619169 3.8797603 -1.2981192 0
11.113833 -0.8044486 -1.269574 0
11.797226 -6.4187069 -1.2671771 0
3.4388199 -4.5026736 -0.32568699 0
9.1914215 9.0608091 -1.229125 0
10.544726 3.8964291 -1.2867805 0
11.081924 -0.75937617 -1.2675505 0
11.803674 -6.3635974 -1.2723199 0
3.3866167 -4.4039679 -0.32422239 0
9.427352 9.3617649 -1.2535565 0
10.609212 3.9666216 -1.2924933 0
11.104589 -0.7181015 -1.2698181 0
11.690048 -6.2471495 -1.266933 0
3.4009993 -4.3861227 -0.32974342 0
9.501194 9.5078278 -1.2563871 0
10.511586 3.9740939 -1.2764056 0
11.091827 -0.67646211 -1.2719965 0
11.646306 -6.169004 -1.2666975 0
3.4168384 -4.3733535 -0.3355554 0
9.4077892 9.4902477 -1.2349488 0
10.570912 4.0429821 -1.2814837 0
11.104373 -0.6324963 -1.2731338 0
11.612898 -6.0917373 -1.2696342 0
3.4256544 -4.3532305 -0.34171987 0
nan nan nan 0
10.445428 4.0389352 -1.2621188 0
11.06683 -0.59160954 -1.2685848 0
11.558445 -6.0118184 -1.2682649 0
3.4444633 -4.3442731 -0.34783369 0
nan nan nan 0
10.36084 4.0520267 -1.2498363 0
11.073507 -0.54545957 -1.2749587 0
11.488596 -5.9170156 -1.2693694 0
3.464761 -4.3340216 -0.35395756 0
9.7660789 10.063744 -1.2614222 0
10.323421 4.08108 -1.2412331 0
11.090141 -0.50941926 -1.2766724 0
11.489838 -5.8695283 -1.27417 0
3.4664047 -4.3067183 -0.35750899 0
10.08923 10.47328 -1.2953185 0
10.386316 4.1521273 -1.2487262 0
11.10662 -0.46356341 -1.2822664 0
11.375878 -5.7513542 -1.2678365 0
3.4991066 -4.3117967 -0.36590677 0
9.6384754 10.079042 -1.2299168 0
10.394871 4.1998005 -1.2436733 0
11.073797 -0.42541239 -1.2743875 0
11.358713 -5.6954603 -1.2705308 0
3.4988532 -4.2793326 -0.37005171 0
9.8370209 10.366056 -1.2477548 0
10.481233 4.2794461 -1.2498738 0
11.099724 -0.38373166 -1.2811205 0
11.320996 -5.6247177 -1.2706829 0
3.5110941 -4.2623281 -0.3755008 0
10.045637 10.663899 -1.266284 0
10.535149 4.3444262 -1.2581038 0
11.115951 -0.34350687 -1.2828394 0
11.230124 -5.5259056 -1.2669193 0
3.5409203 -4.2696056 -0.38203752 0
9.9903698 10.683414 -1.2488147 0
10.536578 4.394587 -1.2543211 0
11.062674 -0.29548272 -1.2765369 0
11.206897 -5.4587069 -1.268411 0
3.5385756 -4.2320886 -0.38575327 0
10.155411 10.940003 -1.2587047 0
10.232082 4.3137851 -1.210229 0
11.138169 -0.25665042 -1.2851312 0
11.203831 -5.406497 -1.2723941 0
3.5666978 -4.2340899 -0.39197972 0
10.453483 11.344211 -1.2899483 0
10.646272 4.5344324 -1.259132 0
11.12869 -0.21368176 -1.2878708 0
11.111711 -5.3095398 -1.2661237 0
3.5915611 -4.2320275 -0.39982083 0
10.288151 11.247235 -1.2612308 0
10.542834 4.5382805 -1.2408428 0
11.144461 -0.17701675 -1.2876494 0
11.069826 -5.2445064 -1.2701659 0
3.5970979 -4.2071977 -0.40357372 0
10.375041 11.426035 -1.2607369 0
10.262302 4.4621758 -1.2038149 0
11.145058 -0.13422388 -1.2876494 0
11.052354 -5.1867132 -1.272433 0
3.6252332 -4.208775 -0.41084528 0
10.584229 11.742605 -1.274714 0
11.043047 4.8498573 -1.2910882 0
11.155409 -0.09345752 -1.288797 0
11.004337 -5.1127129 -1.2667763 0
3.640398 -4.1951871 -0.41569266 0
10.582393 11.819146 -1.2680595 0
11.021916 4.8865423 -1.2863476 0
11.120469 -0.050463434 -1.2886623 0
10.945201 -5.0365443 -1.2684652 0
3.6554615 -4.1814866 -0.42150903 0
10.827813 12.182806 -1.2884958 0
10.500832 4.7016487 -1.2214433 0
11.185147 -0.0097608846 -1.2961444 0
10.935835 -4.983747 -1.2716168 0
3.7364166 -4.2426085 -0.43401021 0
10.860826 12.314855 -1.2836239 0
10.252234 4.6376801 -1.1886314 0
11.190305 0.029296216 -1.2947669 0
10.861927 -4.9043479 -1.2673349 0
3.7105272 -4.1851487 -0.43429857 0
10.968781 12.520717 -1.2808241 0
10.784743 4.9217119 -1.2459793 0
11.170243 0.072135285 -1.2924682 0
10.829296 -4.8419099 -1.2677302 0
3.7163525 -4.1594348 -0.43800512 0
11.136193 12.80621 -1.2909484 0
10.794322 4.9739661 -1.2428921 0
11.209183 0.11347343 -1.3009787 0
10.829015 -4.7919769 -1.2718056 0
3.7085898 -4.1188059 -0.44203681 0
10.900812 12.628712 -1.2573056 0
11.23789 5.235539 -1.2942924 0
11.2585 0.16113928 -1.3047777 0
10.810713 -4.7320747 -1.277833 0
3.7367415 -4.119606 -0.44945145 0
10.310133 12.033289 -1.1803496 0
10.640444 5.0002093 -1.2211637 0
11.227652 0.19793959 -1.3052442 0
10.771008 -4.6721954 -1.2775215 0
3.7657146 -4.1196494 -0.45593327 0
nan nan nan 0
11.336557 5.3805685 -1.2923476 0
11.266989 0.24191181 -1.3059288 0
10.729285 -4.6052284 -1.2725282 0
3.7568898 -4.0798669 -0.4579238 0
11.5455 13.676773 -1.2923933 0
11.19177 5.3621979 -1.2715075 0
11.28566 0.28369927 -1.3102014 0
10.658563 -4.5286827 -1.268299 0
3.7579353 -4.0511036 -0.46206483 0
11.066796 13.207608 -1.2291036 0
11.275635 5.4532824 -1.2766709 0
11.284487 0.32703093 -1.3102014 0
10.615901 -4.4625134 -1.2652426 0
3.7792847 -4.0442872 -0.46772873 0
11.366768 13.667051 -1.2492654 0
11.232862 5.4859147 -1.2675905 0
11.288405 0.36855796 -1.3088067 0
10.60863 -4.413774 -1.2685286 0
3.8074036 -4.044559 -0.47522983 0
11.32364 13.717152 -1.2344447 0
11.342674 5.5911269 -1.2755973 0
11.356395 0.41443539 -1.3168644 0
10.578928 -4.3538408 -1.2690319 0
3.8185449 -4.0267205 -0.47867796 0
11.485924 14.018074 -1.2386607 0
11.171257 5.5576162 -1.252003 0
11.320289 0.45466977 -1.3108581 0
10.543575 -4.2941689 -1.268929 0
3.8398695 -4.019598 -0.48438862 0
11.998563 14.753702 -1.2830955 0
11.301581 5.6766906 -1.262354 0
11.358156 0.49988019 -1.3154557 0
10.563234 -4.2571044 -1.2754463 0
3.8438616 -3.9943631 -0.4888919 0
12.158329 15.062601 -1.2857136 0
11.365805 5.7612138 -1.2628936 0
11.416014 0.54435635 -1.3203572 0
10.509851 -4.1887531 -1.2710483 0
3.8767841 -3.9963417 -0.49789086 0
12.240995 15.27926 -1.2832093 0
11.168 5.7124953 -1.2366006 0
11.403687 0.58766347 -1.3212025 0
10.455181 -4.122622 -1.2685599 0
3.8667374 -3.9568627 -0.49960169 0
12.523518 15.73858 -1.2971382 0
11.091076 5.7220802 -1.2236896 0
11.406416 0.62972987 -1.3217772 0
10.470107 -4.0821238 -1.2764056 0
3.9012363 -3.9643867 -0.50618297 0
12.674514 16.06024 -1.2943473 0
11.395169 5.937006 -1.2530676 0
11.433895 0.67529333 -1.3232262 0
10.377769 -4.0023665 -1.2692512 0
3.9237561 -3.955385 -0.51292396 0
12.578779 16.048079 -1.2721341 0
11.444587 6.0161881 -1.2518064 0
11.406788 0.71565551 -1.3183625 0
10.378512 -3.9569433 -1.2733665 0
3.9484663 -3.9512236 -0.51917386 0
12.631001 16.236925 -1.2618006 0
10.450713 5.5450497 -1.134997 0
11.463428 0.76340961 -1.3252379 0
10.379003 -3.9136198 -1.2716581 0
3.9590671 -3.9328964 -0.52358133 0
13.026523 16.872601 -1.2888104 0
11.589338 6.2037349 -1.2541722 0
11.475648 0.80648088 -1.3249489 0
10.337475 -3.8526893 -1.2706008 0
3.9766726 -3.9215317 -0.52892238 0
13.004871 16.972799 -1.2703425 0
11.66326 6.2984114 -1.2599927 0
11.457376 0.84941936 -1.3252379 0
10.294766 -3.7938578 -1.2713958 0
3.9835079 -3.8995776 -0.53381747 0
13.085376 17.208141 -1.2616415 0
11.593693 6.3132138 -1.2478762 0
11.488924 0.89612788 -1.3272371 0
10.275964 -3.7421761 -1.2730932 0
4.0016861 -3.8873949 -0.53916287 0
13.585299 17.995605 -1.2961482 0
11.652094 6.4057927 -1.2452133 0
11.520449 0.94108075 -1.3292243 0
10.242883 -3.6876645 -1.2673117 0
4.033546 -3.8897116 -0.54547983 0
13.66373 18.238123 -1.2860581 0
11.596518 6.4254093 -1.2345421 0
11.551627 0.98829281 -1.3311995 0
10.222534 -3.6380703 -1.272734 0
4.0582137 -3.8848944 -0.55183595 0
13.794179 18.553574 -1.2804416 0
11.719119 6.5549641 -1.2409302 0
11.592457 1.0345992 -1.3363327 0
10.212584 -3.5904095 -1.2736003 0
4.0720038 -3.8695934 -0.55771881 0
14.100486 19.111464 -1.2862645 0
11.833372 6.6786509 -1.246168 0
11.603468 1.0805066 -1.3360097 0
10.19325 -3.5396941 -1.2713941 0
4.1017013 -3.8665993 -0.56363016 0
14.51178 19.820574 -1.3089021 0
11.863665 6.7477179 -1.2445016 0
11.594254 1.122527 -1.3374733 0
10.148956 -3.482682 -1.2718642 0
4.1087461 -3.8435514 -0.56950939 0
14.561288 20.027187 -1.2933483 0
11.908526 6.8311224 -1.2445779 0
11.634572 1.1715398 -1.3405656 0
10.152849 -3.4405 -1.2706872 0
4.1138897 -3.8228619 -0.5724231 0
14.538239 20.150351 -1.2717625 0
11.57811 6.6981034 -1.2031888 0
11.694662 1.2209045 -1.3459167 0
10.141216 -3.3951719 -1.2733442 0
4.1421285 -3.8209074 -0.57936919 0
14.431851 20.173067 -1.2434884 0
11.841209 6.911129 -1.2236298 0
11.714815 1.2684988 -1.3467033 0
10.115039 -3.3452291 -1.2760531 0
4.1570582 -3.8039062 -0.58428663 0
14.345375 20.193365 -1.2157975 0
nan nan nan 0
11.675995 1.3076092 -1.3386279 0
10.099071 -3.2969835 -1.2761937 0
4.1859808 -3.8009439 -0.59128386 0
14.312396 20.304155 -1.1888803 0
nan nan nan 0
11.745144 1.3610369 -1.3450546 0
10.05023 -3.2383895 -1.2684412 0
4.1810312 -3.7685831 -0.59359592 0
5.6436439 8.0719471 -0.46103159 0
10.129684 6.0624909 -1.0286747 0
11.72551 1.4023337 -1.341298 0
10.037746 -3.1938043 -1.270975 0
4.2204437 -3.7761638 -0.60122031 0
5.5886331 8.0499802 -0.44843167 0
9.9928551 6.0304542 -1.0088077 0
11.804093 1.4577261 -1.348815 0
10.025831 -3.147671 -1.2716484 0
4.2971339 -3.8165152 -0.61420631 0
5.5904799 8.1159773 -0.44234583 0
9.9957571 6.0846863 -1.0032218 0
11.823547 1.5041451 -1.3495519 0
9.9799833 -3.0931389 -1.2680874 0
4.2777061 -3.7699783 -0.61539572 0
5.5609541 8.1367912 -0.43202537 0
9.9610968 6.1137376 -0.99582094 0
11.8076 1.5482109 -1.3505052 0
9.962883 -3.045959 -1.2681096 0
4.2836881 -3.7474451 -0.61829627 0
5.5482478 8.1824169 -0.41953599 0
nan nan nan 0
11.852017 1.5982431 -1.3477906 0
9.9925623 -3.0150294 -1.2741696 0
4.3345971 -3.764025 -0.62770426 0
13.778032 20.480703 -1.0216137 0
nan nan nan 0
11.870165 1.6471215 -1.352682 0
9.9132586 -2.94962 -1.2662683 0
4.4005647 -3.7931075 -0.641397 0
8.2093182 12.30005 -0.59653151 0
12.231868 7.6938767 -1.1981969 0
11.9041 1.696324 -1.3508726 0
9.9192419 -2.9118681 -1.2656606 0
4.4110637 -3.7727337 -0.64388758 0
8.1501188 12.304152 -0.57986742 0
12.691056 8.0508823 -1.2356327 0
11.946428 1.749184 -1.358562 0
9.9199629 -2.8707542 -1.2716553 0
4.4522676 -3.7771337 -0.65284193 0
8.1218147 12.359579 -0.56297714 0
13.044235 8.3421364 -1.2621053 0
11.965443 1.7967882 -1.3529108 0
9.9161024 -2.8302901 -1.2698221 0
4.4688749 -3.7644753 -0.6574769 0
8.1149788 12.448351 -0.55007905 0
12.800685 8.2526417 -1.2307559 0
12.012241 1.851007 -1.3611437 0
9.8452625 -2.7692325 -1.2630038 0
4.582634 -3.8289592 -0.67722458 0
13.339 20.626846 -0.88355362 0
13.597227 8.830143 -1.3016058 0
12.079472 1.9067173 -1.3652222 0
9.8549204 -2.7330112 -1.2665738 0
4.5949411 -3.8134387 -0.68139344 0
13.30603 20.726271 -0.86439675 0
13.415775 8.782382 -1.2704103 0
12.072295 1.9531229 -1.3630878 0
9.8457699 -2.6898041 -1.2676784 0
4.6397648 -3.8206487 -0.69117379 0
13.200929 20.72929 -0.83673251 0
13.251098 8.7441273 -1.2466902 0
12.134162 2.0087976 -1.366549 0
9.8028927 -2.6376827 -1.264443 0
4.823854 -3.9398503 -0.72174299 0
11.882397 18.803358 -0.7262221 0
13.255499 8.8202772 -1.2390977 0
12.166151 2.0599346 -1.3688124 0
9.8216591 -2.6041656 -1.2692261 0
4.8803062 -3.9562266 -0.7324602 0
10.21332 16.29406 -0.60769933 0
13.555376 9.0916739 -1.2530417 0
12.202929 2.1143925 -1.3672895 0
9.8267841 -2.565181 -1.2686063 0
4.976222 -4.0024152 -0.75019282 0
nan nan nan 0
13.526455 9.1443329 -1.2477252 0
12.239141 2.1669021 -1.3722275 0
4.8913116 -1.2576954 -0.63353902 0
5.3241787 -4.250236 -0.80511749 0
21.287752 34.521694 -1.1895506 0
14.074881 9.5904369 -1.2836092 0
12.265904 2.2202477 -1.3673662 0
4.4488182 -1.1257241 -0.57566172 0
5.2187476 -4.1348453 -0.79041243 0
21.141674 34.554195 -1.1456647 0
13.942088 9.5749683 -1.2568799 0
12.326344 2.2778776 -1.3728112 0
4.4334641 -1.1045649 -0.57476729 0
5.386374 -4.2340932 -0.81818312 0
21.051893 34.692444 -1.0980663 0
13.60831 9.4193268 -1.2182764 0
12.313092 2.324357 -1.367893 0
4.4230227 -1.0839432 -0.57448465 0
5.6909266 -4.4398441 -0.86835593 0
20.909811 34.744801 -1.0477128 0
14.118526 9.8492212 -1.2520736 0
12.324248 2.3732762 -1.367873 0
4.4271522 -1.0669521 -0.57448465 0
5.6761684 -4.3933749 -0.86733657 0
20.846916 34.929432 -1.0083444 0
13.940079 9.8008862 -1.2304564 0
12.388675 2.4350526 -1.3715918 0
4.4357624 -1.0518401 -0.57590616 0
5.6562052 -4.3448663 -0.86816269 0
20.631161 34.843735 -0.96135569 0
14.34867 10.166945 -1.2512923 0
12.540979 2.5127642 -1.3849471 0
4.4444036 -1.0358806 -0.57812583 0
5.6729965 -4.3216648 -0.87438655 0
nan nan nan 0
14.214602 10.150411 -1.2305815 0
12.614959 2.5757151 -1.3896034 0
4.4286346 -1.0151062 -0.57719827 0
5.6521802 -4.2747107 -0.87138397 0
24.944069 42.841 -1.0557344 0
14.799614 10.654198 -1.2719655 0
12.3132 2.5633912 -1.3552166 0
4.5051837 -1.0144607 -0.58584422 0
5.6528053 -4.2396197 -0.87510967 0
24.902483 43.132366 -0.99978393 0
14.931115 10.832172 -1.2672615 0
12.110106 2.5674558 -1.3251482 0
4.6928797 -1.0378088 -0.61143392 0
5.6408086 -4.1968765 -0.87448937 0
24.826897 43.350201 -0.94176227 0
14.908133 10.899121 -1.2557398 0
12.022854 2.5972364 -1.3123398 0
nan nan nan 0
5.6237297 -4.1522346 -0.87443274 0
29.190805 51.405994 -1.0421911 0
15.495711 11.416076 -1.2885014 0
12.096253 2.6595337 -1.3170344 0
nan nan nan 0
5.6831622 -4.1624932 -0.88617754 0
28.988791 51.446812 -0.97920698 0
15.446472 11.46738 -1.2744031 0
12.552683 2.8081574 -1.3633012 0
4.3204684 -0.90495402 -0.56312627 0
5.8864708 -4.2783408 -0.92058933 0
24.29715 43.492451 -0.76522696 0
15.449345 11.557587 -1.2578346 0
12.484554 2.8432963 -1.3480387 0
4.3287692 -0.88935608 -0.56375903 0
6.0392618 -4.3540506 -0.94582379 0
28.584705 51.589401 -0.82355917 0
15.639022 11.789128 -1.2561922 0
12.411755 2.8746078 -1.3345624 0
4.2106934 -0.84825993 -0.5471912 0
6.1757908 -4.4181714 -0.96870375 0
28.241779 51.414104 -0.75766295 0
15.648232 11.886266 -1.2432047 0
12.352674 2.9109442 -1.3249234 0
4.3352256 -0.85682523 -0.56453025 0
6.4307833 -4.5633659 -1.0115398 0
nan nan nan 0
nan nan nan 0
12.36745 2.9623137 -1.3142025 0
4.3095555 -0.83457083 -0.55843037 0
6.5446396 -4.6081872 -1.0282054 0
nan nan nan 0
nan nan nan 0
12.486439 2.9839027 -1.3130944 0
4.2951317 -0.83333313 -0.55271953 0
6.5697026 -4.6258345 -1.0250163 0
28.287994 51.498241 -0.67685163 0
15.930652 12.08764 -1.2265977 0
12.517104 2.9427755 -1.3106409 0
4.3021998 -0.85185844 -0.54938048 0
6.3916183 -4.5355735 -0.9928683 0
28.47135 51.384819 -0.73825479 0
16.36121 12.320104 -1.26344 0
12.528311 2.8946917 -1.3106409 0
4.2261925 -0.85291755 -0.53930587 0
6.1901693 -4.4268255 -0.95599318 0
24.349314 43.567966 -0.67078924 0
15.953659 11.921838 -1.2460328 0
12.558239 2.8531621 -1.3126692 0
4.3009191 -0.88519895 -0.54693651 0
6.032938 -4.3494916 -0.92769116 0
24.39794 43.2817 -0.72846729 0
16.062956 11.91636 -1.258322 0
12.602636 2.8124044 -1.3207257 0
4.2978325 -0.90099585 -0.54540366 0
5.8370857 -4.240891 -0.89228678 0
29.260736 51.46637 -0.9196974 0
15.951142 11.738725 -1.2599045 0
12.622578 2.7683258 -1.3217432 0
nan nan nan 0
5.7447028 -4.2091074 -0.87316954 0
29.337788 51.185223 -0.97829509 0
16.221327 11.850492 -1.2850108 0
12.044736 2.5931637 -1.2601839 0
5.0089908 -1.0903051 -0.6312446 0
5.7888727 -4.2757273 -0.87727273 0
24.981331 43.21666 -0.87131137 0
15.908246 11.532584 -1.2740704 0
12.07384 2.5531621 -1.2600652 0
4.7774477 -1.0582598 -0.60081583 0
5.8017702 -4.3182087 -0.87393457 0
nan nan nan 0
15.909124 11.436077 -1.2841904 0
12.779572 2.6511745 -1.3372488 0
4.5410724 -1.0242077 -0.57075477 0
5.8293133 -4.3735909 -0.87544501 0
nan nan nan 0
15.942259 11.371503 -1.2937899 0
12.886681 2.6241672 -1.3474412 0
4.4747863 -1.0265069 -0.55963951 0
5.8493729 -4.4222412 -0.87569314 0
nan nan nan 0
15.771695 11.171116 -1.2870986 0
12.988873 2.5930755 -1.3617476 0
4.4565015 -1.0403405 -0.55622703 0
5.8486309 -4.4570761 -0.87293124 0
nan nan nan 0
15.619966 10.977895 -1.2848122 0
13.047334 2.5550556 -1.3645408 0
4.4432817 -1.0544423 -0.55262941 0
5.8841786 -4.518353 -0.87282521 0
nan nan nan 0
15.645079 10.906041 -1.2934552 0
12.425632 2.3883016 -1.3031043 0
4.4445868 -1.0711539 -0.55163431 0
5.8837695 -4.5524168 -0.86996865 0
21.137629 34.820026 -0.95994258 0
15.511889 10.72893 -1.2924126 0
12.342247 2.3209383 -1.293372 0
4.4401546 -1.0897849 -0.55083638 0
5.5262241 -4.3097982 -0.8121047 0
21.295883 34.792603 -1.0040747 0
14.378224 9.8671074 -1.2071693 0
12.345558 2.274744 -1.2950509 0
4.441134 -1.107299 -0.54983675 0
5.3155537 -4.1769223 -0.77860767 0
21.378073 34.641087 -1.0446115 0
15.172203 10.330385 -1.283519 0
12.363544 2.2290084 -1.3004624 0
4.4612832 -1.1305352 -0.54960561 0
5.2072659 -4.1227903 -0.75908196 0
11.67828 18.776546 -0.59447128 0
nan nan nan 0
12.460014 2.1992788 -1.307521 0
4.5918322 -1.1815451 -0.56537896 0
5.1141467 -4.0811081 -0.74315929 0
10.246487 16.340633 -0.53874803 0
13.98242 9.3710203 -1.2006439 0
13.144242 2.2680423 -1.383104 0
4.8660617 -1.2720497 -0.59796047 0
5.0015469 -4.0242224 -0.72233015 0
10.279294 16.260235 -0.55749708 0
15.074955 10.023363 -1.3039979 0
13.294441 2.2438133 -1.4004124 0
4.9095602 -1.3026634 -0.6020903 0
4.8946095 -3.9678214 -0.70341396 0
11.960985 18.767757 -0.66051888 0
14.646656 9.65769 -1.2698884 0
13.332401 2.197603 -1.4035119 0
nan nan nan 0
4.7227902 -3.857307 -0.67428422 0
nan nan nan 0
14.309796 9.3605013 -1.2497002 0
13.252227 2.1345258 -1.3918709 0
10.480694 -2.865227 -1.2763778 0
4.6392365 -3.8188546 -0.66019779 0
13.449468 20.773808 -0.78636891 0
14.280528 9.2667971 -1.2561185 0
13.136302 2.0688362 -1.3836204 0
nan nan nan 0
4.556695 -3.7790122 -0.64623582 0
13.484091 20.660896 -0.80982357 0
14.422664 9.2840881 -1.2776597 0
13.114065 2.0161047 -1.3828316 0
10.302794 -2.8959849 -1.2515236 0
4.4822102 -3.7450516 -0.63245738 0
8.129509 12.357185 -0.50102311 0
14.447815 9.2255573 -1.2829007 0
13.112558 1.9596848 -1.3817949 0
10.506314 -3.0007339 -1.2700299 0
4.4454846 -3.7434454 -0.62314218 0
8.1799755 12.335192 -0.5168615 0
14.417401 9.1319218 -1.2921969 0
12.990806 1.8974692 -1.3706105 0
10.534473 -3.0465956 -1.2746482 0
4.443439 -3.7696438 -0.62067342 0
8.2137184 12.288054 -0.5316419 0
14.342202 9.0073137 -1.2882936 0
13.037792 1.8485883 -1.3770621 0
10.517705 -3.0895455 -1.2664181 0
4.4097872 -3.7716417 -0.61296195 0
8.2624779 12.272716 -0.54767454 0
13.887733 8.6510792 -1.2561035 0
12.984502 1.7971289 -1.3731096 0
10.593525 -3.1500156 -1.2728891 0
4.3254104 -3.7256968 -0.59800065 0
13.869092 20.42308 -0.93975347 0
nan nan nan 0
12.962344 1.7387573 -1.3699841 0
10.575908 -3.1930547 -1.2684609 0
4.3120403 -3.7417979 -0.594015 0
5.5620985 8.1323709 -0.38366258 0
10.022186 6.1416039 -0.9168269 0
12.948668 1.6886331 -1.3701797 0
10.607307 -3.2450039 -1.2697221 0
4.3050151 -3.7661023 -0.58806229 0
5.5873795 8.1023922 -0.39358038 0
10.005743 6.0811958 -0.92150199 0
12.870954 1.6282619 -1.3635738 0
10.681025 -3.3124585 -1.2721504 0
4.2765632 -3.768971 -0.58203733 0
5.6254191 8.0999489 -0.40298566 0
10.028466 6.042398 -0.92967612 0
12.83265 1.5756513 -1.3566134 0
10.683455 -3.3561842 -1.2699369 0
4.2438407 -3.7691829 -0.57454485 0
5.6290417 8.0420914 -0.41142827 0
10.050127 6.0053511 -0.93580633 0
12.872699 1.5304192 -1.364791 0
10.690058 -3.4034111 -1.2663168 0
4.2007089 -3.7585063 -0.56559783 0
5.6783428 8.0495634 -0.42492932 0
nan nan nan 0
12.794009 1.4735291 -1.3581392 0
10.767781 -3.471673 -1.2730229 0
4.1871972 -3.7741408 -0.5616625 0
14.381742 20.229599 -1.0967199 0
12.84012 7.5513387 -1.2089725 0
12.828238 1.4343834 -1.3635383 0
10.751296 -3.5078354 -1.2685164 0
4.1627178 -3.7798209 -0.55428755 0
14.434978 20.147701 -1.1124785 0
13.030231 7.5898662 -1.234466 0
12.760212 1.372684 -1.3534197 0
10.77529 -3.5635862 -1.2690136 0
4.1668854 -3.8128984 -0.5518114 0
14.543122 20.142298 -1.1411858 0
13.179879 7.6186104 -1.2542677 0
12.779759 1.327423 -1.3572354 0
10.893879 -3.6492696 -1.2805604 0
4.1312795 -3.8082321 -0.54399133 0
14.648462 20.132305 -1.1697828 0
13.228566 7.5822048 -1.2669655 0
12.734605 1.2778172 -1.3542167 0
10.83549 -3.6697192 -1.2670352 0
4.1176395 -3.8236694 -0.53908783 0
14.686106 20.02932 -1.1886413 0
12.835493 7.2945375 -1.2345339 0
12.725019 1.2252799 -1.3504071 0
10.839453 -3.7217455 -1.2632363 0
4.0893321 -3.8253906 -0.53326869 0
14.779444 20.002462 -1.2163593 0
12.66111 7.1254373 -1.2250944 0
12.674932 1.1713555 -1.346851 0
10.92944 -3.7974799 -1.2712493 0
4.1070094 -3.8729575 -0.53063846 0
14.860333 19.96574 -1.2434006 0
12.90633 7.2071929 -1.2491009 0
12.708228 1.1319435 -1.3522346 0
10.949361 -3.8472886 -1.2710208 0
4.0649185 -3.8601613 -0.52200317 0
14.950599 19.934057 -1.2709917 0
12.792037 7.0819883 -1.2509413 0
12.707668 1.0782613 -1.3539335 0
10.967234 -3.9030993 -1.268736 0
4.0461211 -3.8733184 -0.51665181 0
15.112242 20.010986 -1.301026 0
12.634295 6.9342804 -1.2355558 0
12.622439 1.0288823 -1.3400116 0
11.038148 -3.9718015 -1.2743924 0
4.0370984 -3.8904188 -0.51319706 0
15.152289 19.897425 -1.3238494 0
12.660066 6.8853035 -1.245617 0
12.655807 0.98269945 -1.3453838 0
11.042827 -4.0192599 -1.2703995 0
4.018261 -3.9034963 -0.50687504 0
14.990088 19.535463 -1.3335835 0
12.302807 6.6326904 -1.2203556 0
12.585036 0.92639565 -1.3396815 0
11.082994 -4.0843377 -1.2727252 0
4.0113597 -3.9254715 -0.50287849 0
nan nan nan 0
12.537327 6.699934 -1.2486745 0
12.608108 0.87943345 -1.3439989 0
11.137725 -4.1531501 -1.2745364 0
3.97523 -3.920109 -0.49630371 0
14.085104 18.08009 -1.2853827 0
12.519328 6.6258454 -1.2541884 0
12.5614 0.82992333 -1.3409088 0
11.132148 -4.1976089 -1.2714496 0
3.9576075 -3.9314463 -0.49099308 0
13.977835 17.807381 -1.2934111 0
12.438237 6.5219145 -1.2509583 0
12.574419 0.78230244 -1.3419681 0
11.181605 -4.265368 -1.2726221 0
3.952714 -3.9582367 -0.48645058 0
14.051578 17.779619 -1.3146139 0
12.282486 6.3884091 -1.2404634 0
12.557582 0.73506111 -1.3376542 0
11.245175 -4.3368969 -1.2774032 0
3.9434316 -3.9752192 -0.48102039 0
13.54694 17.012545 -1.2806026 0
12.225564 6.30198 -1.2396334 0
12.500266 0.68793124 -1.3334947 0
11.230589 -4.3763657 -1.2710924 0
3.9186413 -3.9792943 -0.47486299 0
13.158596 16.401133 -1.2602987 0
11.956391 6.1052341 -1.217041 0
12.502704 0.64211088 -1.3334947 0
11.270406 -4.4395304 -1.2731566 0
3.8973522 -3.9867988 -0.4691506 0
13.487885 16.685902 -1.3010044 0
12.40928 6.2792559 -1.265684 0
12.490616 0.58904248 -1.3297235 0
11.341294 -4.5201292 -1.272433 0
3.8656471 -3.9834697 -0.46221048 0
13.466001 16.534502 -1.3191894 0
12.355554 6.1952944 -1.2700424 0
12.417299 0.54432237 -1.3283008 0
11.316426 -4.5560579 -1.2692672 0
3.8609717 -4.0093408 -0.45859805 0
12.87687 15.693303 -1.2736161 0
11.981788 5.9504175 -1.2363291 0
12.489485 0.49507961 -1.3313763 0
11.381775 -4.6355495 -1.2700016 0
3.8520603 -4.0323591 -0.45357963 0
12.637768 15.287299 -1.2652709 0
11.779582 5.7962728 -1.2201974 0
12.410867 0.45074782 -1.3294057 0
11.47612 -4.7207451 -1.280171 0
3.842315 -4.0489545 -0.4500882 0
12.134054 14.568913 -1.229423 0
12.091036 5.8945804 -1.2573177 0
12.388262 0.39797419 -1.3224183 0
11.448511 -4.7632108 -1.2726525 0
3.7956038 -4.0320244 -0.44067279 0
12.135225 14.462198 -1.2440172 0
12.059191 5.8218527 -1.2587454 0
12.419225 0.35340822 -1.3277695 0
11.467431 -4.8228192 -1.2702229 0
3.7810614 -4.0461884 -0.43584025 0
12.107065 14.321706 -1.2488911 0
11.671202 5.5818877 -1.2229375 0
12.385698 0.30486298 -1.3240503 0
11.578685 -4.919631 -1.2756611 0
3.7699559 -4.0640621 -0.42946035 0
12.113194 14.222893 -1.2670652 0
11.789965 5.5856833 -1.2401205 0
12.302004 0.25769025 -1.3171654 0
11.556208 -4.9601607 -1.2729617 0
3.7673163 -4.0940566 -0.42712113 0
12.073568 14.071555 -1.2737725 0
10.661656 5.0010939 -1.1256341 0
12.377465 0.21172762 -1.3251482 0
11.579169 -5.0227551 -1.2664798 0
3.7492223 -4.1044831 -0.42091715 0
11.976115 13.864676 -1.271485 0
nan nan nan 0
12.348733 0.17027636 -1.3176444 0
11.63598 -5.0933113 -1.2678165 0
3.7123823 -4.0913162 -0.41345376 0
11.883251 13.646047 -1.2780153 0
nan nan nan 0
12.284478 0.11792615 -1.3128926 0
11.629695 -5.1462879 -1.2626476 0
3.7076137 -4.1162772 -0.40973887 0
12.129787 13.826503 -1.3152027 0
10.859784 4.9467998 -1.1637708 0
12.294771 0.07295949 -1.3139552 0
11.660016 -5.213335 -1.2658525 0
3.6952941 -4.1344137 -0.40623659 0
11.98205 13.57663 -1.3075174 0
11.980494 5.4144354 -1.2867755 0
12.275064 0.029993698 -1.3118299 0
11.747589 -5.2993035 -1.2704465 0
3.6870618 -4.1557584 -0.40018004 0
11.837648 13.309651 -1.3049253 0
12.026892 5.3824077 -1.296597 0
12.205265 -0.010651106 -1.3065217 0
11.770181 -5.3590193 -1.2703469 0
3.67349 -4.1682224 -0.39533171 0
11.67385 13.019858 -1.2964404 0
12.126061 5.3659363 -1.3118644 0
12.229972 -0.061901975 -1.3091826 0
11.83527 -5.4461184 -1.2705388 0
3.6537161 -4.1794901 -0.38916367 0
11.636018 12.891398 -1.3027235 0
12.043123 5.281548 -1.3056251 0
12.254556 -0.10266592 -1.3118435 0
11.858573 -5.5045662 -1.2657795 0
3.6451323 -4.2006431 -0.38500965 0
11.209191 12.327382 -1.2703431 0
12.011152 5.2151213 -1.3116188 0
12.159617 -0.14856514 -1.3017319 0
11.923165 -5.5902948 -1.2726361 0
3.6248436 -4.2053533 -0.3804431 0
11.320891 12.358914 -1.292572 0
11.898317 5.1119204 -1.2994273 0
12.218644 -0.19407889 -1.3081182 0
11.880903 -5.6236901 -1.2610549 0
3.6017487 -4.2126369 -0.37298834 0
10.848695 11.748386 -1.250111 0
11.8357 5.0288329 -1.297175 0
12.088715 -0.24266861 -1.2921711 0
12.015986 -5.7467852 -1.2707932 0
3.5832653 -4.2222524 -0.36782011 0
11.297636 12.15345 -1.3088478 0
11.467607 4.8252487 -1.2593662 0
12.152456 -0.28426632 -1.2990782 0
12.009901 -5.7954721 -1.2652357 0
3.5519402 -4.2165704 -0.36039007 0
11.1366 11.892506 -1.3051642 0
10.731134 4.4691372 -1.1869296 0
12.176125 -0.33160293 -1.3017348 0
12.042875 -5.8658991 -1.2638894 0
3.5590663 -4.2565951 -0.35783124 0
10.515886 11.147488 -1.2410827 0
11.740157 4.8389435 -1.3032819 0
12.095187 -0.37799349 -1.2932338 0
12.122557 -5.9650373 -1.2676178 0
3.5659461 -4.2967286 -0.35521117 0
11.132637 11.714961 -1.3229917 0
11.679933 4.7617364 -1.2990065 0
12.063981 -0.41917539 -1.2900457 0
12.1736 -6.0430279 -1.2679749 0
3.5059891 -4.2561307 -0.34499282 0
10.79566 11.277293 -1.2917411 0
10.871082 4.3855824 -1.213456 0
12.09201 -0.46875536 -1.2932338 0
12.176735 -6.1056314 -1.2612522 0
3.4968729 -4.2769103 -0.34079632 0
10.640913 11.03054 -1.2816154 0
11.538754 4.6034956 -1.2903837 0
12.085333 -0.51075161 -1.2927024 0
12.294754 -6.2159147 -1.2683294 0
3.4939761 -4.3054743 -0.33622143 0
10.538128 10.844165 -1.2777288 0
11.652057 4.599267 -1.3077908 0
12.038681 -0.5529899 -1.2879205 0
12.306866 -6.2814875 -1.2647619 0
3.4908783 -4.3340263 -0.33257562 0
10.604897 10.833146 -1.2943267 0
10.811461 4.2217355 -1.2157959 0
12.061401 -0.59834182 -1.2905771 0
12.319761 -6.3450937 -1.2611524 0
3.4550109 -4.3249202 -0.32402331 0
nan nan nan 0
10.812682 4.1744351 -1.2243482 0
11.984546 -0.6448642 -1.2805126 0
12.414251 -6.456943 -1.2636189 0
3.4734242 -4.3807998 -0.32235852 0
10.555716 10.625957 -1.3103867 0
10.911119 4.1665511 -1.2378796 0
12.051591 -0.69277996 -1.2879388 0
12.461249 -6.5395279 -1.2683579 0
3.4296994 -4.3583708 -0.31589639 0
10.033791 10.033791 -1.2514403 0
10.938942 4.1334815 -1.2455835 0
12.034661 -0.73396307 -1.2821391 0
12.461329 -6.595149 -1.2582986 0
3.4031661 -4.3542871 -0.30800748 0
10.012946 9.9328775 -1.2587432 0
11.006273 4.1085095 -1.25551 0
11.981556 -0.77901238 -1.2810431 0
12.553738 -6.708704 -1.2653309 0
3.4103239 -4.3997335 -0.30440411 0
10.064667 9.9147205 -1.270829 0
10.830121 3.9954424 -1.2397702 0
11.93428 -0.82196838 -1.2720933 0
12.608754 -6.7976327 -1.2633002 0
3.3821905 -4.3966241 -0.29750341 0
9.669364 9.4557257 -1.22843 0
10.824224 3.9525368 -1.241657 0
11.98626 -0.86549425 -1.2758118 0
12.620922 -6.8611603 -1.2542785 0
3.387419 -4.436976 -0.29450655 0
9.9638233 9.6724911 -1.27599 0
11.021553 3.9745231 -1.2707275 0
11.982531 -0.91569448 -1.2758118 0
12.720296 -6.9814816 -1.2618259 0
3.3660622 -4.4410582 -0.28814432 0
9.5395298 9.1929302 -1.2289906 0
10.961397 3.9053335 -1.2661633 0
11.870389 -0.94672853 -1.264199 0
12.7456 -7.050468 -1.2589644 0
3.3529437 -4.4575944 -0.28256157 0
9.8169956 9.3911648 -1.2722528 0
10.909375 3.8417974 -1.2646474 0
11.955852 -0.99975818 -1.2737004 0
12.711546 -7.0926013 -1.2504818 0
