# .PCD v0.7 - Point Cloud Data file format
VERSION 0.7
FIELDS x y z intensity
SIZE 4 4 4 4
TYPE F F F F
COUNT 1 1 1 1
WIDTH 1397
HEIGHT 1
VIEWPOINT 0 0 0 1 0 0 0
POINTS 1397
DATA ascii
0.97718173 -0.54232973 0.073446557 0
0.70110083 -0.94059891 0.065999769 0
4.5211778 4.2979417 0.15572305 0
6.2632461 2.1933575 0.34198138 0
0.92940426 -0.080821998 0.062454578 0
0.96645826 -0.54102105 0.073177412 0
0.66495997 -0.89896989 0.06388624 0
4.5296879 4.2745361 0.15221246 0
6.2720571 2.1682172 0.34082314 0
0.92910177 -0.08422789 0.062454578 0
0.99050099 -0.55925798 0.075750776 0
0.66722393 -0.90964562 0.065244243 0
4.5417533 4.2545595 0.1477457 0
6.2942505 2.1500955 0.33927074 0
0.92874527 -0.087955818 0.062617399 0
0.93620205 -0.53356719 0.072328113 0
0.66091436 -0.90800321 0.065935642 0
4.5500507 4.2311287 0.14425507 0
6.3163939 2.1318395 0.33770785 0
0.90857875 -0.089407131 0.060959302 0
0.9558326 -0.54940617 0.074579649 0
0.65755481 -0.91038191 0.066719666 0
4.5766206 4.2246628 0.14025502 0
6.318748 2.1093194 0.33629227 0
0.92316705 -0.093934678 0.061958637 0
0.9712494 -0.56256074 0.076321304 0
0.67486733 -0.94090879 0.069603778 0
4.5928617 4.207108 0.13699381 0
6.3502603 2.0940018 0.33521864 0
0.90297103 -0.095224768 0.06062619 0
0.93899518 -0.54848462 0.074516259 0
0.65080911 -0.91510069 0.068287633 0
4.5957651 4.1818247 0.13232608 0
6.367445 2.0738239 0.33455059 0
0.90260535 -0.098532528 0.060784668 0
0.92405099 -0.54430759 0.074052349 0
0.64742309 -0.91744071 0.069071569 0
4.6014333 4.1533399 0.12876113 0
6.3710742 2.0467548 0.33196524 0
0.91709214 -0.10367882 0.061786611 0
0.93040031 -0.55309033 0.07530795 0
0.66406476 -0.94838279 0.072028749 0
4.6115246 4.1347795 0.12433326 0
6.3921609 2.030169 0.3315379 0
0.90683258 -0.10556572 0.061118647 0
0.91142255 -0.54590732 0.074290633 0
0.64346504 -0.92616969 0.071150117 0
4.6281648 4.1163049 0.11892814 0
6.4091992 2.0097499 0.32968703 0
0.89155287 -0.10741613 0.05995997 0
0.91783535 -0.55454803 0.075362526 0
0.63154167 -0.91615582 0.070982501 0
4.6612868 4.1167121 0.11615189 0
6.4547424 1.9980764 0.33046868 0
0.90109396 -0.11159839 0.06062619 0
0.90744823 -0.55238813 0.075032316 0
0.66757941 -0.97607106 0.076470785 0
4.6839075 4.1062303 0.11307716 0
6.4813466 1.9803096 0.32671443 0
0.9056381 -0.11553298 0.06079996 0
0.87988019 -0.54003656 0.073459305 0
0.64716542 -0.95370644 0.075138293 0
4.7027555 4.0923676 0.10881574 0
6.498179 1.9594411 0.32601139 0
0.88047612 -0.11560423 0.05913876 0
0.88210303 -0.54586184 0.074357338 0
nan nan nan 0
4.7139826 4.0718727 0.10546695 0
6.5054259 1.9356433 0.32364219 0
0.90475637 -0.12216707 0.060959302 0
0.93085963 -0.58076245 0.078838684 0
nan nan nan 0
4.7327247 4.057869 0.10119934 0
6.5412831 1.920243 0.32388121 0
0.88453639 -0.12273957 0.059626859 0
0.91180432 -0.57352734 0.077969268 0
0.73299021 -1.1061685 0.089533947 0
4.7483106 4.0397 0.097935118 0
6.9609003 2.0157428 0.34302211 0
0.88409084 -0.12598218 0.059471 0
0.88860446 -0.56349051 0.076715365 0
0.69837481 -1.0631739 0.08694151 0
4.7516894 4.0126467 0.09227217 0
7.0212989 2.0053701 0.34052482 0
0.87375027 -0.12777787 0.05880652 0
0.91170776 -0.58283728 0.079463437 0
0.69444007 -1.0656754 0.08782953 0
4.7664008 3.9952343 0.08901573 0
7.0478888 1.9850545 0.34017858 0
0.88313335 -0.13245793 0.059626859 0
0.91374546 -0.58886868 0.08001937 0
0.69049609 -1.0681617 0.088717513 0
4.7758164 3.9762363 0.085690327 0
7.0641131 1.9643639 0.33936295 0
0.8678925 -0.13327132 0.058321029 0
0.88227582 -0.57317555 0.078000829 0
0.68692493 -1.0704063 0.089383468 0
4.7917848 3.9570706 0.081351832 0
7.0672388 1.9347036 0.33657411 0
0.88217312 -0.13877566 0.059471 0
0.91350484 -0.59823632 0.081529967 0
0.70399463 -1.1067545 0.09333235 0
4.7992411 3.9323311 0.077972271 0
7.102716 1.9191198 0.3340984 0
0.86689228 -0.13962966 0.058321029 0
0.89878708 -0.59331638 0.080977015 0
0.69722855 -1.1050403 0.094117746 0
4.8291678 3.9273579 0.074964441 0
7.1152468 1.891891 0.33304021 0
0.85160691 -0.14037184 0.057326924 0
0.88009328 -0.58539701 0.079661921 0
0.69313866 -1.1075324 0.095029913 0
4.8577714 3.9239287 0.069755867 0
7.126369 1.869568 0.33198029 0
0.87567443 -0.14763765 0.05913876 0
0.90689462 -0.60803026 0.082863994 0
0.70481896 -1.1354288 0.098139174 0
4.8618059 3.8950408 0.066326492 0
7.1774564 1.8522075 0.33141845 0
0.86037809 -0.14830384 0.058142044 0
0.88397026 -0.59736848 0.081530742 0
0.67447436 -1.0954853 0.095375419 0
4.8845801 3.882587 0.063165873 0
7.1987767 1.8295939 0.3307921 0
0.84509861 -0.14886162 0.056995548 0
0.86936694 -0.59215295 0.08112216 0
0.65222156 -1.0680912 0.093879879 0
4.8948932 3.861594 0.057674449 0
7.2156072 1.8044045 0.32734263 0
0.86417794 -0.15549015 0.05847428 0
0.89183819 -0.61225611 0.083617754 0
0.65821964 -1.0877064 0.096263565 0
4.9090376 3.8436456 0.054409944 0
7.2368894 1.7815689 0.32409984 0
0.86361229 -0.15865833 0.058321029 0
0.86088008 -0.59565717 0.081103124 0
0.64650601 -1.0772439 0.095788889 0
4.9257255 3.8304319 0.051186439 0
7.2525215 1.7599299 0.32323176 0
0.85814124 -0.16090684 0.057684898 0
0.85047853 -0.59308141 0.080873616 0
0.63741106 -1.0709662 0.096116304 0
4.9364715 3.8084621 0.045704525 0
7.2541189 1.7321892 0.32171372 0
0.86733627 -0.16592394 0.058498275 0
0.8686434 -0.61049277 0.083558924 0
0.63597238 -1.0775155 0.097592682 0
4.9464455 3.787318 0.042405937 0
7.2994862 1.7147675 0.31951156 0
0.84714514 -0.16528219 0.057025641 0
0.8541854 -0.60502088 0.082564734 0
0.6244393 -1.0668892 0.097073525 0
4.9165249 3.7359042 0.037720691 0
7.3155112 1.6902637 0.31862688 0
0.84657282 -0.1682402 0.056874998 0
0.84393007 -0.60219175 0.082140304 0
0.61547804 -1.0604752 0.097360723 0
4.9262123 3.714864 0.033382751 0
7.3413048 1.6679035 0.31553304 0
0.85083055 -0.17233035 0.05735527 0
0.84977531 -0.6110754 0.083478168 0
0.61652505 -1.0713043 0.099015214 0
4.9604712 3.7109067 0.03027436 0
7.3376718 1.6388192 0.31380206 0
0.84041119 -0.173429 0.05684578 0
0.84749442 -0.61416012 0.084026195 0
0.60514998 -1.0605106 0.098669901 0
4.9700408 3.6897321 0.025928535 0
7.2949924 1.6012387 0.30780646 0
0.84466201 -0.17753634 0.057025641 0
0.81705171 -0.5966785 0.081401907 0
0.58895493 -1.0409743 0.097491235 0
4.9915981 3.6774344 0.020559939 0
7.2618999 1.5660987 0.30226967 0
0.84890383 -0.18167928 0.057052236 0
0.83490622 -0.61442208 0.083768725 0
0.59503901 -1.060347 0.099964976 0
5.005692 3.6582489 0.016231542 0
7.2239227 1.5289044 0.29915142 0
0.83849198 -0.18266752 0.056246687 0
0.84061909 -0.62338877 0.085122183 0
0.58626932 -1.0537508 0.099987462 0
5.0352664 3.6516256 0.010855942 0
7.185606 1.4933 0.2934871 0
0.83295536 -0.18466175 0.055770766 0
0.81038445 -0.60558349 0.082284778 0
0.58478433 -1.0602095 0.10103461 0
5.0242715 3.6156266 0.0064821518 0
7.1129541 1.4510257 0.28395554 0
0.83230132 -0.18771985 0.055324033 0
0.84009439 -0.63236713 0.08589457 0
0.58564991 -1.0710424 0.10250536 0
5.061275 3.6155062 0.0021711895 0
7.0889268 1.4190807 0.2802594 0
0.82675385 -0.18965566 0.05485246 0
0.80996627 -0.61435229 0.083222419 0
0.57218921 -1.0555983 0.10167006 0
5.0531349 3.6096911 -0.0075869444 0
7.0848355 1.4169757 0.264934 0
0.83171886 -0.19079462 0.053536955 0
0.80213881 -0.60841525 0.080649488 0
0.56987351 -1.0513262 0.099787273 0
5.0317545 3.622345 -0.0075747268 0
7.1042094 1.4479504 0.26205391 0
0.82758963 -0.18665716 0.052483547 0
0.81240612 -0.61152524 0.080205746 0
0.5691812 -1.0404928 0.097506814 0
5.0184441 3.640763 -0.0075747268 0
7.1870074 1.4922826 0.26274252 0
0.83316714 -0.1847087 0.052345444 0
0.83068353 -0.62052667 0.080692649 0
0.57785541 -1.0472151 0.097073734 0
5.0050678 3.659133 -0.0064926236 0
7.2205544 1.526875 0.26546147 0
0.8533709 -0.18590894 0.053112604 0
0.84501171 -0.62641776 0.08112216 0
0.59870631 -1.0756629 0.098615959 0
4.9929075 3.6757114 -0.0043284157 0
7.2590089 1.5628237 0.26319119 0
0.83940101 -0.17979875 0.051752631 0
0.84324574 -0.62055928 0.07964135 0
0.59537488 -1.0605117 0.096144639 0
4.9794025 3.6939869 -0.003246312 0
7.2972064 1.5990549 0.26348138 0
0.82542819 -0.1736441 0.050408322 0
0.83347988 -0.60867572 0.077783108 0
0.58456999 -1.032383 0.092538081 0
4.9618258 3.7092192 -0.0010812314 0
7.3303585 1.6344998 0.2635805 0
0.8505252 -0.17567092 0.051444966 0
0.8599847 -0.62321156 0.079110906 0
0.60817581 -1.0649495 0.094364397 0
4.9422526 3.7269602 0.0021607175 0
7.3340197 1.6635563 0.2652438 0
0.83649677 -0.16957912 0.050409015 0
0.83802825 -0.60262799 0.075981691 0
0.60999697 -1.0582511 0.092914917 0
4.905973 3.7251859 0.0043004905 0
7.3133111 1.6870664 0.26340514 0
0.84692955 -0.16846476 0.050546467 0
0.848382 -0.60536844 0.076170117 0
0.61392015 -1.0560919 0.091635741 0
4.955821 3.7917531 0.0065345112 0
7.3021235 1.7126975 0.26584789 0
0.86224735 -0.1682287 0.051269665 0
0.86692947 -0.61382025 0.076700963 0
0.62791395 -1.0711099 0.092048369 0
4.9260497 3.7976794 0.007599161 0
7.2666783 1.7325073 0.26348138 0
0.84816754 -0.16225693 0.050094321 0
0.84882337 -0.59634173 0.073995233 0
0.62934661 -1.0645909 0.090383679 0
4.9160409 3.8187721 0.011951135 0
7.2603245 1.7591401 0.26217756 0
0.86348361 -0.16190855 0.050809674 0
0.84694356 -0.59039658 0.07309892 0
0.63838345 -1.0708982 0.090242215 0
4.9059472 3.8398452 0.013048072 0
7.2246709 1.778561 0.26242393 0
0.86407989 -0.15874425 0.050656341 0
0.88605189 -0.6128453 0.075713053 0
0.65776896 -1.0942787 0.091071062 0
4.8872375 3.8555543 0.015210529 0
7.2181034 1.8050287 0.26242393 0
0.8499431 -0.1529289 0.049340714 0
0.85544461 -0.58705193 0.072003506 0
0.64631283 -1.0663491 0.087630853 0
4.8730664 3.8734353 0.01846992 0
7.2017093 1.8290012 0.26336831 0
0.87018931 -0.15312466 0.050481539 0
0.89073414 -0.60625172 0.073832616 0
0.66326165 -1.0853188 0.088273525 0
4.8510199 3.8850102 0.022779113 0
7.1756473 1.8504049 0.26136649 0
0.86579889 -0.14939383 0.04973631 0
0.89690477 -0.60610932 0.073607653 0
0.68297583 -1.1084267 0.089214414 0
4.8484192 3.9121809 0.023921425 0
7.1350222 1.8678455 0.25884554 0
0.87624568 -0.14757669 0.050146408 0
0.89109439 -0.59698623 0.071993262 0
0.68220079 -1.0972816 0.087177791 0
4.8417926 3.9362211 0.028316123 0
7.1087236 1.8888282 0.26071158 0
0.87180477 -0.1438574 0.049864687 0
0.89310044 -0.5940488 0.071431644 0
0.68360841 -1.0906106 0.085717976 0
4.8118534 3.941262 0.030396532 0
7.0920601 1.9122567 0.26163939 0
0.87240082 -0.14036073 0.049402032 0
0.89551932 -0.59048617 0.070682794 0
0.70363247 -1.1134667 0.086562008 0
4.7928152 3.9565151 0.033626221 0
7.075408 1.9356126 0.26000315 0
0.86798632 -0.13638869 0.048969574 0
0.88936776 -0.58176428 0.069283359 0
0.69989824 -1.0981972 0.084441945 0
4.7705798 3.967649 0.036820993 0
7.063364 1.9601717 0.2623848 0
0.8881709 -0.13654388 0.050082516 0
0.89969158 -0.5842666 0.069372229 0
0.69316953 -1.0788939 0.082028762 0
4.7612195 3.9866486 0.039018326 0
7.0423489 1.979515 0.26312497 0
0.88869113 -0.13329153 0.049612001 0
0.90605211 -0.58368689 0.06913057 0
0.69716555 -1.0764176 0.080685817 0
4.7451673 4.0057201 0.041185975 0
7.0247364 2.0050259 0.26276553 0
0.87435418 -0.12786619 0.048785135 0
0.90823585 -0.58039439 0.068190001 0
0.69568807 -1.0655564 0.078947425 0
4.7190042 4.0133476 0.045411311 0
7.0028968 2.0265796 0.26349872 0
0.88475436 -0.12576164 0.049180407 0
0.8810786 -0.55807155 0.065434061 0
0.70236254 -1.067214 0.07836511 0
4.7073369 4.0346756 0.048694186 0
6.5303392 1.9157926 0.24598031 0
0.90991789 -0.12626153 0.050073173 0
0.91677034 -0.57642764 0.066993706 0
0.73942286 -1.1146082 0.08063782 0
4.7014894 4.0567851 0.050940353 0
6.514329 1.9345801 0.24680513 0
0.89553148 -0.12092146 0.049256761 0
0.88502979 -0.55195469 0.063977763 0
nan nan nan 0
4.6926827 4.0821633 0.055364601 0
6.4968596 1.9578062 0.24881077 0
0.89106786 -0.1166785 0.048827779 0
0.89575732 -0.55366302 0.064038619 0
0.6751107 -1.0016468 0.070917435 0
4.6889477 4.1092014 0.058762614 0
6.4849029 1.9801588 0.24744414 0
0.91130042 -0.11593205 0.04991284 0
0.90631908 -0.55561066 0.064089008 0
0.67074126 -0.98659533 0.068997227 0
4.6715307 4.121407 0.060890079 0
6.4679718 2.0009348 0.24944277 0
0.90177029 -0.11168216 0.049370311 0
0.87834781 -0.53446388 0.061265014 0
0.62924564 -0.9183023 0.063212454 0
4.6563606 4.1384721 0.065239213 0
6.422492 2.012687 0.24679536 0
0.89230353 -0.10703261 0.048357226 0
0.87615597 -0.52853107 0.060253277 0
0.63263828 -0.91603482 0.062240977 0
4.6136184 4.1337523 0.068116203 0
6.3959398 2.0301404 0.24840489 0
0.91252738 -0.10606724 0.049431831 0
0.92094904 -0.55095834 0.062630557 0
0.66738915 -0.95881802 0.064495601 0
4.6251268 4.1732612 0.070675589 0
6.3843741 2.0497983 0.24939023 0
0.89303732 -0.10080154 0.048200373 0
0.92280841 -0.54792356 0.061881322 0
0.63939154 -0.91145176 0.060492195 0
4.587564 4.1699734 0.074663378 0
6.3719835 2.0716124 0.25154325 0
0.89836407 -0.098069534 0.048468154 0
0.9205367 -0.5420211 0.061034173 0
0.63411111 -0.89691418 0.058719859 0
4.5906568 4.2036147 0.078223594 0
6.3405757 2.0871282 0.25177041 0
0.92850929 -0.097917967 0.050074834 0
0.98289806 -0.57389903 0.064431123 0
0.65770537 -0.92309082 0.059599128 0
4.5531387 4.2000442 0.081090041 0
6.3274064 2.1109827 0.25158194 0
0.93388838 -0.094696246 0.049851131 0
0.95497495 -0.55246675 0.061875317 0
0.65819597 -0.91665161 0.058548763 0
4.5523319 4.230288 0.084605709 0
6.3202887 2.1319253 0.2539103 0
0.91928983 -0.090137154 0.049055632 0
0.94817972 -0.54434705 0.06055209 0
0.64694422 -0.89404678 0.056290418 0
4.5440521 4.2537365 0.089087285 0
6.2981629 2.1502044 0.2556628 0
0.93452668 -0.088174224 0.049851131 0
0.98490626 -0.560642 0.062170655 0
0.68260455 -0.93608451 0.058283407 0
4.5240259 4.2677007 0.091186687 0
6.2855592 2.1716568 0.25431019 0
0.91993433 -0.083396815 0.048894417 0
0.93915528 -0.53005093 0.058593333 0
0.65945196 -0.8974067 0.054856233 0
4.508306 4.2842083 0.09552858 0
6.2727571 2.1930015 0.2564387 0
0.92023385 -0.080024526 0.048894417 0
0.96725154 -0.54124343 0.059834033 0
0.66870904 -0.90304893 0.054367635 0
4.4997473 4.3075709 0.10003099 0
6.2402706 2.2097955 0.25778547 0
0.94542736 -0.078392811 0.050215889 0
0.98256248 -0.54464322 0.059662256 0
0.71119821 -0.95240986 0.056679055 0
4.481813 4.3189754 0.10212336 0
6.2282043 2.2287936 0.25759092 0
0.94569951 -0.075258613 0.049884733 0
nan nan nan 0
0.67251009 -0.89407331 0.052563962 0
4.4659138 4.3353353 0.10538231 0
6.2152524 2.2498899 0.25855002 0
0.94596899 -0.071791947 0.049884733 0
nan nan nan 0
0.66977602 -0.88367772 0.051127035 0
4.4555669 4.3601675 0.10990379 0
6.1974974 2.2691884 0.26046297 0
0.93629766 -0.067278907 0.049195796 0
1.0984044 -0.593162 0.064548463 0
0.68548256 -0.89689827 0.050866134 0
4.4445896 4.3783727 0.11434756 0
6.1749973 2.2866514 0.26216999 0
0.93153417 -0.063832313 0.048934117 0
1.0651823 -0.57066715 0.061850186 0
0.67628908 -0.87881362 0.049191695 0
4.4277167 4.3953781 0.11652537 0
6.1572175 2.3057644 0.26177216 0
0.94670993 -0.061386906 0.049719159 0
nan nan nan 0
0.67065042 -0.86428577 0.047572296 0
4.4009137 4.4009137 0.12059034 0
6.1299505 2.321207 0.26326457 0
0.94694579 -0.057917684 0.049387995 0
1.0782411 -0.56753039 0.060872741 0
0.6984489 -0.89333087 0.048518453 0
4.3866725 4.4220328 0.12503572 0
6.1259809 2.345412 0.26575497 0
0.93717396 -0.053708896 0.049195796 0
1.0362452 -0.54012495 0.057970051 0
0.683191 -0.86724615 0.046465289 0
4.3789392 4.4436131 0.12959185 0
6.1079383 2.3642087 0.26763639 0
0.95729053 -0.051677432 0.050242517 0
nan nan nan 0
0.67707253 -0.85302895 0.044884153 0
4.3905234 4.4881539 0.13480586 0
6.0758834 2.3774436 0.26889312 0
0.96744716 -0.048670191 0.050765876 0
nan nan nan 0
0.72389734 -0.90518922 0.046957463 0
4.7883916 4.9308939 0.15237658 0
6.0680094 2.3975959 0.26775441 0
0.94269764 -0.043961808 0.049128059 0
nan nan nan 0
0.68649006 -0.85199285 0.043180466 0
4.7719522 4.953598 0.15728933 0
6.0489278 2.4181738 0.27075532 0
0.96280378 -0.041026797 0.050504196 0
nan nan nan 0
0.69622421 -0.85700923 0.042803962 0
4.748549 4.962132 0.15945815 0
6.0399361 2.4402924 0.27302927 0
0.97792023 -0.038422588 0.050947614 0
1.0682681 -0.53261882 0.056083865 0
0.73735958 -0.9008773 0.044112246 0
4.7362666 4.9874954 0.16449207 0
6.0077381 2.4529357 0.27424756 0
0.96308428 -0.034304839 0.050167806 0
1.029929 -0.50879896 0.053570937 0
0.70570832 -0.85578829 0.041255314 0
4.6938744 4.9792767 0.16843256 0
6.0032363 2.4768074 0.27672556 0
0.96819425 -0.030934183 0.050427742 0
1.0048952 -0.49185818 0.051587638 0
0.75356126 -0.9070245 0.043033764 0
4.6823831 5.0037036 0.17107075 0
5.9802852 2.4930272 0.27608693 0
0.99326712 -0.027744461 0.051727429 0
0.97093314 -0.47041315 0.048992023 0
0.75065112 -0.89649606 0.041444641 0
4.6707335 5.0280671 0.17611144 0
5.9802265 2.5187697 0.27877778 0
0.97839612 -0.024082351 0.05060599 0
0.85994494 -0.41312435 0.042988636 0
0.7249524 -0.85938531 0.039065704 0
4.6505594 5.039763 0.18077074 0
5.9487643 2.5287774 0.27996111 0
0.99343652 -0.020809529 0.051727429 0
0.82086772 -0.39065483 0.040804327 0
0.7184065 -0.84531981 0.037770357 0
4.6437039 5.0730438 0.1860992 0
5.9247084 2.5466805 0.28156313 0
0.99848956 -0.017254379 0.05216166 0
0.81778866 -0.38551968 0.040264539 0
0.7410174 -0.86547655 0.037995759 0
4.6149077 5.0788355 0.19048433 0
5.9793897 2.5961909 0.28689197 0
0.98856056 -0.013458668 0.051640041 0
0.80564934 -0.37619412 0.038821254 0
0.72788149 -0.84385413 0.036384527 0
4.6095843 5.1104865 0.19464284 0
6.029304 2.6441696 0.28974989 0
0.98862123 -0.0098355012 0.051294934 0
0.80250108 -0.37114754 0.038294528 0
0.72443408 -0.83365983 0.035094414 0
4.5907073 5.1272182 0.20064867 0
6.055922 2.6823506 0.29613268 0
1.0086073 -0.0059852661 0.052683275 0
0.80854499 -0.37001011 0.038045306 0
0.74066812 -0.84605825 0.034944598 0
4.5736094 5.1423345 0.20425208 0
6.1473212 2.7472548 0.30104589 0
1.0036466 -0.0026275467 0.05207213 0
0.80523032 -0.36526865 0.037522927 0
0.71733445 -0.81336999 0.032945003 0
4.560349 5.167244 0.2093602 0
6.1734881 2.78614 0.3063789 0
1.0136272 0.00070764538 0.052767176 0
0.79734832 -0.35850981 0.036488615 0
0.74327391 -0.83716953 0.033030804 0
4.5496802 5.1897426 0.21448216 0
6.2504878 2.8458767 0.31306922 0
0.99861997 0.0043573291 0.052335955 0
0.80322069 -0.35761687 0.036697119 0
0.7699725 -0.86026037 0.033458516 0
4.5272484 5.2024989 0.21914157 0
6.3079867 2.9000158 0.31890798 0
0.99861556 0.0080175716 0.051987365 0
0.79083538 -0.34863508 0.035468232 0
0.7329728 -0.8129068 0.030956272 0
4.5080485 5.2189403 0.2239562 0
6.3923516 2.9672308 0.32618603 0
1.0135581 0.011852791 0.052767176 0
0.78295612 -0.34173968 0.034909092 0
0.73610312 -0.81010216 0.030192114 0
4.4952927 5.2428956 0.22910227 0
6.4717817 3.0329816 0.33330441 0
1.0234679 0.015541904 0.053823002 0
0.79797274 -0.3448177 0.035218097 0
0.78265518 -0.85561603 0.031174805 0
4.4824457 5.2668557 0.2330551 0
6.4515395 3.0523841 0.33408424 0
1.028415 0.019387461 0.053726509 0
0.77169311 -0.33011055 0.033417724 0
0.73866796 -0.80104756 0.028152522 0
4.4630055 5.283124 0.23788339 0
6.4402032 3.0759597 0.33657557 0
1.058279 0.023830909 0.05547611 0
0.78671044 -0.33312884 0.03371625 0
0.74841589 -0.80567336 0.027643105 0
4.4563465 5.3146329 0.24341302 0
6.4197817 3.095154 0.33859229 0
8.121067 0.21265762 0.425753 0
0.78332913 -0.32831639 0.033222601 0
0.78894567 -0.84308565 0.028219163 0
4.4399238 5.3346391 0.24843386 0
6.4037428 3.1163995 0.34208405 0
8.0303974 0.23973942 0.42104277 0
0.76607823 -0.31779 0.03215139 0
0.7714712 -0.8183791 0.026701029 0
4.429749 5.3622642 0.2550402 0
6.3787231 3.1331913 0.34384507 0
8.0042906 0.26832682 0.42392778 0
0.75800419 -0.31118932 0.031478003 0
0.75038332 -0.79018641 0.025109578 0
4.4036155 5.3705974 0.25952244 0
6.3715086 3.1586871 0.34781036 0
7.9784532 0.29673979 0.41981941 0
0.77304178 -0.3140569 0.031616934 0
0.69467062 -0.72591597 0.022450047 0
4.3828459 5.3873248 0.26437104 0
6.3195844 3.1618533 0.34807879 0
7.9572835 0.32516184 0.42015919 0
0.75565416 -0.30377105 0.030575354 0
0.66264379 -0.68738717 0.020666573 0
4.3723702 5.4148688 0.26980051 0
6.3033862 3.1826887 0.35029766 0
7.9161334 0.35254741 0.41805181 0
0.76141518 -0.30284998 0.030476898 0
0.66865116 -0.68855017 0.020104723 0
4.3492813 5.4268489 0.27324831 0
6.2960739 3.2080097 0.35177869 0
7.8997531 0.38083428 0.4186419 0
0.76253963 -0.30006492 0.029904818 0
0.69589829 -0.71087611 0.020143215 0
4.338511 5.4542561 0.28113562 0
6.2751718 3.2263846 0.35620764 0
7.8632545 0.40796733 0.41954038 0
0.75432175 -0.29364285 0.029540127 0
0.69850886 -0.70833057 0.019448709 0
4.3233747 5.4723773 0.2862061 0
6.2631383 3.2492766 0.35990208 0
7.856648 0.4365038 0.42064768 0
0.76939142 -0.29626647 0.029799376 0
0.71520239 -0.71996158 0.019131167 0
4.3001127 5.4841371 0.28965005 0
6.2334905 3.2629471 0.35888323 0
7.8252363 0.46353409 0.41630995 0
0.78916007 -0.30056208 0.030227015 0
0.7496689 -0.74914563 0.019424425 0
4.289062 5.5115266 0.29514861 0
6.2313008 3.2881725 0.36308181 0
7.8134456 0.49158034 0.41714603 0
0.77623791 -0.29238728 0.0294009 0
0.75596815 -0.74992305 0.01877266 0
4.2564921 5.5112319 0.2991657 0
6.2014647 3.3015437 0.3645049 0
7.7615552 0.51688254 0.41855866 0
0.74921817 -0.27907836 0.028059136 0
0.78022742 -0.76806688 0.01853713 0
4.2421813 5.5345154 0.30568039 0
5.629446 3.0260768 0.33495009 0
7.7496471 0.54462653 0.41802135 0
0.7736904 -0.2849693 0.028648183 0
0.8402552 -0.82111669 0.019071247 0
4.2247615 5.5538311 0.31077105 0
5.5578165 3.0113711 0.33349311 0
7.722631 0.57118005 0.41802964 0
0.75126195 -0.2735855 0.027500968 0
0.80379629 -0.77974933 0.017396742 0
4.2072215 5.5730457 0.31708726 0
5.5455294 3.0335732 0.33680287 0
7.6956286 0.59619975 0.41802919 0
0.73820561 -0.26562482 0.026848398 0
0.81385964 -0.78374195 0.016763272 0
4.1926231 5.5962448 0.32242274 0
5.535336 3.0518889 0.33900931 0
7.6834383 0.62359381 0.4174884 0
0.76272392 -0.27129382 0.027420862 0
0.87455475 -0.83603472 0.017316565 0
4.1719484 5.6113925 0.32730439 0
5.5195937 3.0696433 0.34204847 0
7.6710796 0.65090054 0.41829133 0
0.7448734 -0.26187304 0.026192589 0
0.83410323 -0.79153436 0.015655119 0
4.1571121 5.6344509 0.33388251 0
5.5037947 3.0873222 0.34508231 0
7.5889988 0.67196012 0.41528076 0
0.72695482 -0.25258353 0.025260853 0
0.81153244 -0.76448202 0.014400311 0
4.1323628 5.6399589 0.3382875 0
5.4923368 3.1074145 0.34728509 0
7.5615559 0.69747126 0.41524544 0
0.76569623 -0.26290318 0.026290512 0
0.86560148 -0.80916584 0.014477144 0
4.1242614 5.676559 0.3431696 0
5.4850883 3.1299078 0.35086659 0
7.5440392 0.72375071 0.41442639 0
0.72879928 -0.24725217 0.024857895 0
0.85757238 -0.79579043 0.013681323 0
4.0974107 5.6832905 0.34879541 0
5.4604397 3.1424286 0.35333326 0
7.5164251 0.74891406 0.41437975 0
0.72023207 -0.24140568 0.024269911 0
0.85340977 -0.78557563 0.012754609 0
4.0871196 5.708828 0.35444295 0
5.4444065 3.159822 0.35634935 0
7.5036249 0.77542418 0.41514859 0
0.72586423 -0.24033776 0.024162682 0
0.88212603 -0.80605662 0.012305225 0
4.0718083 5.7317085 0.35985565 0
5.4197564 3.1721275 0.35769367 0
7.4907322 0.80185062 0.41591394 0
0.70774829 -0.23146452 0.023271052 0
0.86656427 -0.78602809 0.01123102 0
4.0495505 5.7469897 0.36721808 0
5.4208283 3.199487 0.36184257 0
7.4577546 0.82597888 0.41818902 0
0.69908059 -0.22579688 0.022958687 0
0.86572665 -0.77950382 0.010776381 0
4.0319819 5.7711201 0.37388346 0
5.3965936 3.2106357 0.36426967 0
7.4248452 0.84989256 0.41782394 0
0.7094298 -0.2262715 0.023141088 0
0.88736081 -0.79283494 0.010176891 0
4.0126724 5.7842431 0.37879828 0
5.3846254 3.2302952 0.36755753 0
7.4166508 0.87650585 0.41884831 0
0.69596142 -0.21916874 0.022420462 0
0.8865239 -0.78626305 0.0095136864 0
4.0025792 5.8150868 0.38603354 0
5.3640985 3.2447758 0.36916155 0
7.4034042 0.90246636 0.41959003 0
0.69199508 -0.21513505 0.022013944 0
0.87814623 -0.77310115 0.0085764704 0
3.9050679 5.7181816 0.38349655 0
5.347743 3.2617145 0.3721475 0
7.3851151 0.92771941 0.4200466 0
0.73100513 -0.22432804 0.023095049 0
0.88850689 -0.77646041 0.0080319429 0
3.8531296 5.6867714 0.38525084 0
5.3440881 3.2864192 0.37602553 0
7.3570042 0.95028561 0.41993269 0
0.7031309 -0.21295744 0.021932911 0
0.8875739 -0.76992583 0.0071776211 0
3.7708032 5.6094317 0.38498983 0
5.3191133 3.2979901 0.37840509 0
7.3336053 0.97460389 0.42009354 0
0.71348745 -0.21324231 0.022101352 0
0.89052641 -0.76651454 0.0065624039 0
3.6669424 5.4983482 0.38222733 0
5.3025894 3.3147128 0.38137767 0
7.3249645 1.0007906 0.42110041 0
0.72865278 -0.21486881 0.02228117 0
0.91614163 -0.78273541 0.0058887172 0
3.6217918 5.4740062 0.38535717 0
5.2986226 3.3393042 0.38635898 0
7.3061991 1.0255189 0.42411047 0
0.67664737 -0.19684039 0.020668717 0
0.88494802 -0.74995959 0.0052638948 0
3.5823841 5.4578094 0.38786367 0
5.2789221 3.3513982 0.38901734 0
7.2627921 1.0465844 0.42309558 0
0.68217176 -0.19573846 0.020691438 0
0.91038346 -0.76634252 0.0045692604 0
3.5104263 5.391151 0.38784385 0
5.2538223 3.3625438 0.39135203 0
7.2440205 1.0709958 0.42351019 0
0.7117461 -0.20140386 0.021307524 0
0.94772023 -0.79185516 0.0040954072 0
3.4173455 5.2905064 0.38521627 0
5.2486081 3.3889835 0.39306864 0
7.2054267 1.0922911 0.42276129 0
0.64512378 -0.17987907 0.018941278 0
0.89699686 -0.74337977 0.0028466289 0
3.3843241 5.2817588 0.38806954 0
5.2412348 3.4089017 0.39883888 0
7.2013016 1.1186817 0.42403325 0
0.64577872 -0.17751336 0.018941278 0
0.93074131 -0.76533598 0.002523744 0
3.3219304 5.2264562 0.38853431 0
5.2106457 3.4188502 0.40082887 0
7.1772151 1.1418961 0.42667681 0
0.65607643 -0.17776027 0.019105351 0
nan nan nan 0
3.2599909 5.1707711 0.38885942 0
5.2020655 3.4405613 0.40441546 0
7.1729078 1.1681823 0.42794523 0
0.65189791 -0.17406593 0.018847106 0
0.9246726 -0.74905229 0.0010384707 0
3.1844451 5.0882692 0.38606656 0
5.1779933 3.4493766 0.40670261 0
7.1537347 1.1919911 0.42832926 0
0.6573714 -0.17294876 0.01874944 0
0.92351538 -0.7425254 0.00041364299 0
3.1585553 5.0922432 0.39065409 0
5.1769581 3.4774599 0.41094652 0
7.1100183 1.2102296 0.42848852 0
0.67251885 -0.17430092 0.019041777 0
nan nan nan 0
3.0865061 5.0131216 0.38998851 0
5.1568346 3.4888146 0.41572246 0
7.0905619 1.2336758 0.4313674 0
0.65862471 -0.16812618 0.018630803 0
0.93690199 -0.74178088 -0.00083426724 0
3.0368044 4.9731317 0.38907358 0
5.1439528 3.5076511 0.41680914 0
7.0860672 1.2596688 0.43011126 0
0.66409326 -0.16693191 0.01840926 0
0.97499675 -0.76614517 -0.001731366 0
2.9769964 4.9156051 0.38976207 0
5.1143155 3.5149717 0.4208889 0
7.0664477 1.2829171 0.43297693 0
0.67440104 -0.16689739 0.018799266 0
nan nan nan 0
2.9099844 4.8449426 0.38826588 0
5.1135182 3.5420885 0.425161 0
7.0466776 1.3060244 0.43707767 0
0.67015839 -0.1632431 0.01842325 0
nan nan nan 0
2.8537791 4.7910604 0.38701883 0
5.0921383 3.5549679 0.42773086 0
7.037014 1.3309296 0.43552333 0
0.67075533 -0.16078649 0.018302865 0
nan nan nan 0
2.8131969 4.7625451 0.38873047 0
5.074811 3.5706079 0.43063635 0
7.0465651 1.3595057 0.44019154 0
0.68593764 -0.1617696 0.018577751 0
nan nan nan 0
2.7678211 4.7251911 0.38965371 0
5.0615053 3.5890534 0.43388525 0
7.0903502 1.3949271 0.44577512 0
0.67192519 -0.15586747 0.017941708 0
nan nan nan 0
2.7177148 4.6788883 0.39070678 0
5.048007 3.6073589 0.43929982 0
7.0996385 1.4238027 0.45049012 0
0.66761577 -0.15229137 0.01793121 0
nan nan nan 0
2.6779771 4.6496301 0.39214855 0
5.0223603 3.6169131 0.44256142 0
7.1483316 1.4595423 0.45517868 0
0.6876812 -0.15421912 0.018331744 0
nan nan nan 0
2.6187091 4.5855045 0.39056119 0
5.0129185 3.6380894 0.44616127 0
7.2012477 1.4978616 0.46404988 0
0.67359531 -0.14846931 0.018062094 0
nan nan nan 0
2.579571 4.555665 0.3927246 0
5.0113096 3.6650381 0.45265704 0
7.2395654 1.5335354 0.4681749 0
0.67904872 -0.14693959 0.018071719 0
nan nan nan 0
2.5179126 4.4813676 0.3892068 0
4.982235 3.6705363 0.45444298 0
7.2677994 1.5673709 0.47427768 0
0.69913906 -0.14860658 0.018591769 0
nan nan nan 0
2.4770105 4.4466558 0.39076227 0
4.9804387 3.6974516 0.46095479 0
7.3055434 1.6035547 0.48236424 0
0.68499732 -0.14297862 0.018323863 0
nan nan nan 0
2.4436605 4.4248581 0.39249444 0
4.9586744 3.7095623 0.46345627 0
7.3677092 1.645528 0.48818693 0
0.68062329 -0.13946432 0.018071719 0
nan nan nan 0
2.3937156 4.372211 0.39229545 0
4.9367576 3.7214649 0.4681052 0
7.3077745 1.6602857 0.48986953 0
0.70563412 -0.14189635 0.018596159 0
nan nan nan 0
2.3632126 4.3543077 0.39513001 0
4.9267278 3.742301 0.47388196 0
7.2968225 1.6846042 0.49346453 0
0.69142866 -0.13640499 0.018577751 0
nan nan nan 0
2.3576005 4.3457766 0.39692375 0
4.9275689 3.7402282 0.48144028 0
7.3015928 1.6830211 0.50425607 0
0.7011472 -0.13870372 0.019464996 0
nan nan nan 0
2.3998988 4.3853216 0.39958015 0
4.9493418 3.7282422 0.48005322 0
7.3123193 1.6572922 0.50851774 0
0.68591893 -0.13830552 0.019667272 0
nan nan nan 0
2.4474053 4.4334669 0.40122381 0
4.970377 3.716964 0.47974247 0
7.3426905 1.6359043 0.51020938 0
0.69029295 -0.14182234 0.02017674 0
nan nan nan 0
2.4831736 4.4595504 0.40081969 0
4.9800978 3.6958504 0.47719231 0
7.3243575 1.6036651 0.50720912 0
0.6848731 -0.14332695 0.020155765 0
nan nan nan 0
2.5142851 4.4767404 0.39958382 0
4.9776874 3.6658461 0.4735001 0
7.2667847 1.5631708 0.50282204 0
0.68433273 -0.14583395 0.020522131 0
nan nan nan 0
2.5824122 4.5588264 0.40407297 0
5.0072565 3.6593924 0.47394508 0
7.238214 1.5292896 0.50175101 0
0.68378299 -0.14833888 0.020888489 0
nan nan nan 0
2.6240089 4.5929236 0.40330163 0
5.0276346 3.6487699 0.47145447 0
7.2047729 1.4959713 0.4939073 0
0.68323123 -0.15084329 0.021010607 0
nan nan nan 0
2.685734 4.6612167 0.40732703 0
5.0303001 3.6199648 0.46707439 0
7.1465759 1.4565854 0.49082714 0
0.67776376 -0.15236779 0.021103023 0
0.97829258 -0.72893125 -0.0017034408 0
2.7204781 4.6817636 0.40618944 0
5.0505223 3.6091561 0.46565917 0
7.1176233 1.4235333 0.48847708 0
0.67718995 -0.15484843 0.021466753 0
0.96761799 -0.72650814 -0.001055924 0
2.783175 4.7495027 0.4081181 0
5.0598474 3.5878775 0.46203738 0
7.0788178 1.3888087 0.4841966 0
0.67661411 -0.15732855 0.021587996 0
0.96494907 -0.73005003 -0.00021118482 0
2.8286502 4.7867985 0.40733254 0
5.0813169 3.5751855 0.45952713 0
7.025156 1.3515601 0.47892976 0
0.67602181 -0.15980478 0.021951718 0
0.96226674 -0.73358178 0.00063355442 0
2.857373 4.7989993 0.40623477 0
5.0856547 3.5517621 0.4577069 0
7.0398664 1.3276516 0.47959772 0
0.67542785 -0.16228057 0.022072956 0
0.95547742 -0.73422396 0.0016824967 0
2.9161611 4.8571463 0.40808308 0
5.0988355 3.5332346 0.45445889 0
7.0545802 1.3036687 0.47901356 0
0.67482477 -0.16475412 0.022194196 0
0.95277911 -0.73772037 0.0023134323 0
2.9702873 4.9064589 0.40810728 0
5.1283178 3.5259132 0.45374775 0
7.0692105 1.2795957 0.47842592 0
0.66450053 -0.16481653 0.022352826 0
0.9579522 -0.74735785 0.0029688019 0
3.0282426 4.9591107 0.40937391 0
5.1372828 3.5044165 0.45012814 0
7.0886726 1.2563035 0.47816616 0
0.66388816 -0.16724998 0.022472318 0
0.9313637 -0.73264778 0.0037227808 0
3.0865996 5.0171957 0.41191193 0
5.1625476 3.4939933 0.45012304 0
7.1030612 1.2320191 0.47882891 0
0.65841788 -0.16844065 0.022664137 0
0.94421238 -0.74864185 0.004837167 0
3.1314487 5.048542 0.41021559 0
5.1755137 3.4751792 0.446859 0
7.1223674 1.2084945 0.47856215 0
0.66262507 -0.17210701 0.023069762 0
0.93781483 -0.74864775 0.0054454082 0
3.2056255 5.126091 0.41322789 0
5.1925607 3.4590807 0.4439497 0
7.1662059 1.1889279 0.47993833 0
0.65712363 -0.17337418 0.023019983 0
0.9270097 -0.7461344 0.0060231052 0
3.2458677 5.1483698 0.41064444 0
5.2053976 3.4401538 0.44068277 0
7.1703949 1.1639192 0.47867048 0
0.65165287 -0.17448795 0.022968462 0
0.91649842 -0.74322575 0.0067962739 0
3.3290565 5.2376676 0.41547322 0
5.2222066 3.4238286 0.43994519 0
7.1843853 1.1391802 0.48059762 0
0.64134896 -0.17425065 0.023092169 0
0.91750419 -0.74989939 0.0078591593 0
3.3753424 5.2677417 0.4133535 0
5.2426805 3.4111447 0.43737307 0
7.2183433 1.1174585 0.47875085 0
0.65033668 -0.17925468 0.02355716 0
0.9224655 -0.75961107 0.0085511673 0
3.4462578 5.3352666 0.41407382 0
5.2553391 3.3920302 0.43409806 0
7.2470574 1.0947206 0.48038596 0
0.65448374 -0.18298142 0.023850266 0
0.90812773 -0.75340682 0.0090616597 0
3.5312502 5.4231315 0.41849202 0
5.2678003 3.3727863 0.43300638 0
7.2560396 1.0688908 0.47943291 0
0.68745214 -0.19491817 0.025327282 0
0.9130277 -0.76313889 0.0099692037 0
3.5868974 5.4646854 0.41698238 0
5.2845283 3.3562517 0.43007386 0
7.2596278 1.044835 0.47815281 0
0.6867891 -0.19719307 0.025701417 0
0.89478815 -0.75374854 0.010822631 0
3.6235833 5.4767137 0.41430777 0
5.2885423 3.3316619 0.42611581 0
7.307961 1.0244657 0.47979233 0
0.69564825 -0.20249954 0.026313782 0
0.90726322 -0.76995969 0.011630689 0
3.6604443 5.4886045 0.41043967 0
5.3135977 3.3203044 0.42385536 0
7.3219852 0.9964785 0.47915143 0
0.71399295 -0.21095225 0.027169622 0
0.90795767 -0.77684045 0.012513781 0
3.7864542 5.6327143 0.4186838 0
5.3342752 3.3061018 0.423435 0
7.3601298 0.97420728 0.48271197 0
0.72756571 -0.21786499 0.027981775 0
0.89752519 -0.77363014 0.013029492 0
3.8604264 5.6975403 0.41972849 0
5.3422952 3.2840316 0.41981497 0
7.3639011 0.94725668 0.47882456 0
0.72197634 -0.21907791 0.027929366 0
0.90250182 -0.78315121 0.013765106 0
3.9188888 5.742723 0.41792271 0
5.3586802 3.2671022 0.41795823 0
7.3867221 0.92530215 0.48141104 0
0.71167439 -0.21853179 0.028079186 0
0.8768996 -0.76685691 0.014232805 0
4.0050888 5.8230848 0.42112261 0
5.3834887 3.2552218 0.4178569 0
7.4053202 0.89745367 0.48107708 0
0.71078199 -0.22138394 0.028339054 0
0.87380457 -0.77036232 0.015249378 0
4.0201049 5.7949572 0.41407582 0
5.3912916 3.2330148 0.41423407 0
7.4233575 0.87335753 0.48073789 0
0.70996112 -0.2239861 0.028468985 0
0.88591915 -0.78683239 0.01633838 0
4.0357614 5.7722368 0.40857273 0
5.4075789 3.2158935 0.41126865 0
7.4414644 0.84784776 0.48039347 0
0.70912588 -0.22658369 0.028728848 0
0.86811948 -0.77673382 0.016672561 0
4.0550437 5.7590542 0.40365559 0
5.4232535 3.1996427 0.40829784 0
7.4891596 0.82548785 0.48327392 0
0.72730023 -0.23533218 0.029633511 0
0.86897147 -0.78324962 0.017560842 0
4.0657711 5.7274442 0.39638197 0
5.4307604 3.1772957 0.40577805 0
7.5120659 0.80015612 0.48323557 0
0.72642291 -0.23799306 0.029900342 0
0.85868549 -0.77970147 0.018018054 0
4.0868959 5.7127275 0.39147833 0
5.4425521 3.1574759 0.40248352 0
7.5199952 0.77313662 0.48223534 0
0.72548372 -0.24077392 0.030433998 0
0.81510508 -0.74585998 0.01793509 0
4.116724 5.7100787 0.38739875 0
5.4660873 3.1469493 0.40123942 0
7.5576205 0.74902242 0.483138 0
0.7293272 -0.24502067 0.030767197 0
0.80500489 -0.74205709 0.01853713 0
4.1231098 5.6749735 0.38112792 0
5.4777665 3.1269977 0.39793694 0
7.585237 0.72369504 0.48339531 0
0.73314404 -0.24929705 0.031237291 0
0.78395563 -0.72798675 0.018674074 0
4.13519 5.6479516 0.37542737 0
5.499023 3.1099305 0.39746398 0
7.6026611 0.69724834 0.48567748 0
0.72749102 -0.25035325 0.031304322 0
0.75181556 -0.70378268 0.019054417 0
4.1560173 5.632967 0.37054038 0
5.5149183 3.0922968 0.39446744 0
7.6600132 0.67420596 0.48648518 0
0.75014776 -0.26122907 0.03259797 0
0.73103863 -0.6893779 0.019118056 0
4.1738477 5.6139469 0.36417148 0
5.5252619 3.0740585 0.39226037 0
7.7220159 0.65115041 0.49162602 0
0.73032731 -0.25733215 0.032048192 0
0.7177431 -0.68158907 0.019523731 0
4.1915531 5.5948167 0.35903117 0
5.5410409 3.0562956 0.38925663 0
7.7540603 0.62796336 0.49216765 0
0.72475851 -0.25807491 0.031975705 0
0.71523261 -0.68420798 0.020041991 0
4.2091351 5.5755806 0.35511687 0
5.5435076 3.0312102 0.38753995 0
7.781395 0.5987457 0.49374613 0
0.72839481 -0.26266918 0.032723919 0
0.69088 -0.66624355 0.020104723 0
4.2266679 5.5563374 0.3499893 0
5.5645266 3.0137506 0.38594323 0
7.8183603 0.57414448 0.49458778 0
0.73210937 -0.26704499 0.033207066 0
0.69559431 -0.67572761 0.02099118 0
4.2471886 5.5410485 0.3438969 0
5.6757846 3.0497091 0.38957018 0
7.8404107 0.54687983 0.49447533 0
0.72642821 -0.26799351 0.033264477 0
0.68238425 -0.6677736 0.021333128 0
4.2676148 5.5256333 0.33902279 0
6.1936355 3.2987628 0.42182291 0
7.8871756 0.5211004 0.49730089 0
0.72543019 -0.27065012 0.033534754 0
0.67280185 -0.66324115 0.021769311 0
4.2829933 5.5076938 0.33390948 0
6.2279487 3.2877934 0.41963559 0
7.928791 0.49744791 0.49842596 0
0.7291975 -0.2748138 0.033887111 0
0.67035824 -0.66569448 0.022263978 0
4.299047 5.4827781 0.32856748 0
6.2445092 3.2673264 0.41747293 0
7.955718 0.46708322 0.49860045 0
0.74674028 -0.28485373 0.035174493 0
0.66778612 -0.66825241 0.022923524 0
4.3235364 5.476511 0.32416743 0
6.2610674 3.2468152 0.41407582 0
7.9773083 0.43901783 0.49984932 0
0.74567974 -0.28758433 0.035453472 0
0.66884112 -0.67423254 0.023707837 0
4.3362927 5.4475632 0.31861049 0
6.2773643 3.2261269 0.41436884 0
8.0437384 0.41310841 0.50250226 0
0.74460906 -0.29031092 0.035732448 0
0.66611141 -0.67689395 0.02470235 0
4.3481908 5.425488 0.31451288 0
6.2843323 3.2020271 0.4103829 0
8.0699873 0.38762927 0.50405902 0
0.75293195 -0.29643598 0.036320336 0
0.66035998 -0.67551565 0.025066968 0
4.3682175 5.4097261 0.30844522 0
6.3050647 3.1835363 0.40849823 0
8.0963688 0.35915837 0.50420123 0
0.75181669 -0.29918417 0.036885247 0
0.65786731 -0.67791873 0.025726464 0
4.3849983 5.3899703 0.30337283 0
6.3525319 3.1783381 0.40832826 0
8.1226759 0.32766035 0.50575358 0
0.75986427 -0.3059257 0.037626553 0
0.65859431 -0.68414176 0.026525555 0
4.4016905 5.3701611 0.29830724 0
6.3732743 3.1595623 0.40517765 0
8.1786633 0.30275676 0.50774032 0
0.7634604 -0.3103196 0.038143657 0
0.70466864 -0.73687845 0.02919188 0
4.4255915 5.3572311 0.29367077 0
6.3804574 3.1340432 0.40241194 0
8.1797657 0.27135077 0.50774032 0
0.75757062 -0.31147495 0.038341369 0
0.77048391 -0.81220454 0.032835409 0
4.4293156 5.3218932 0.28898981 0
6.4054933 3.1172512 0.40077308 0
8.2306767 0.242843 0.50939918 0
0.76563609 -0.31807655 0.039098352 0
0.76734382 -0.81514007 0.033616971 0
4.4521298 5.3096042 0.28436092 0
6.4215612 3.0960121 0.39732131 0
8.4011307 0.21705683 0.51989585 0
0.77826786 -0.32667428 0.04009958 0
0.7643348 -0.81792974 0.034398519 0
4.4587917 5.2781358 0.27871725 0
6.4374948 3.074666 0.3951093 0
1.0427611 0.023117295 0.064341851 0
0.76785648 -0.32561946 0.039916165 0
0.76131529 -0.82070786 0.035180047 0
4.4911847 5.2771235 0.27468571 0
6.4532337 3.0531857 0.39538577 0
1.0278698 0.019018264 0.063418284 0
0.76664501 -0.32842609 0.0402073 0
0.73797405 -0.80141711 0.034998309 0
4.497611 5.2455997 0.26906967 0
6.451005 3.0232446 0.39082611 0
1.0029829 0.014880641 0.061879005 0
0.77917337 -0.33717841 0.041225947 0
0.73501509 -0.80409825 0.035758872 0
4.5103965 5.2216587 0.26386353 0
6.3806534 2.9618006 0.38344076 0
1.0080277 0.011612158 0.062010918 0
0.79176784 -0.34575027 0.042255051 0
0.75219405 -0.82897282 0.037524536 0
4.5296545 5.2052641 0.25784209 0
6.2827163 2.8883982 0.37449574 0
1.0030757 0.0075281397 0.061703935 0
0.79035318 -0.34891689 0.042707417 0
0.74244434 -0.82427859 0.037963979 0
4.5371013 5.17904 0.25367686 0
6.2514901 2.848968 0.36966413 0
0.99313539 0.0041600601 0.060743295 0
0.78917807 -0.35152978 0.043008987 0
0.73606968 -0.82324916 0.038563944 0
4.5528626 5.158761 0.24868932 0
6.1846423 2.7911739 0.36272857 0
1.0031254 0.00017507841 0.06135378 0
0.80140722 -0.3608394 0.044061601 0
0.73605663 -0.82991534 0.039512888 0
4.580915 5.1541705 0.24441712 0
6.1301708 2.7421579 0.3566477 0
0.99315089 -0.0027734076 0.060569957 0
0.79577172 -0.36114553 0.044116303 0
0.75325447 -0.85470009 0.041177318 0
4.5932217 5.1300263 0.23925573 0
6.0535531 2.6813016 0.34929848 0
0.99313176 -0.0067601376 0.060569957 0
0.79430151 -0.36433059 0.044421341 0
0.73335057 -0.83888054 0.041246682 0
4.5987158 5.0984368 0.23376788 0
6.0040059 2.633075 0.34358555 0
0.99310386 -0.010053445 0.060569957 0
0.80666322 -0.37324342 0.045648247 0
0.72698206 -0.83777261 0.041642506 0
4.6275082 5.0927029 0.23187634 0
5.9770846 2.59519 0.33921754 0
0.98307979 -0.013555662 0.059961211 0
0.80979931 -0.37830412 0.046216697 0
0.72062188 -0.83661807 0.042418528 0
4.6395559 5.068512 0.22434406 0
5.949965 2.5575368 0.3348774 0
0.98801345 -0.017245838 0.060265582 0
0.8219412 -0.38765261 0.047308501 0
0.69805551 -0.81645191 0.041829336 0
4.6479912 5.0405083 0.22146125 0
5.9640007 2.5377128 0.33287317 0
0.98296803 -0.020590246 0.059789613 0
0.82500052 -0.3927983 0.048046872 0
0.70796537 -0.83421355 0.04356239 0
4.6665897 5.0236063 0.21428108 0
5.9688201 2.5139656 0.32922557 0
0.98289829 -0.024536476 0.059446413 0
0.82340193 -0.39609963 0.048365828 0
0.73063761 -0.86735272 0.045747519 0
4.6953163 5.0175242 0.20995228 0
5.9919271 2.4978802 0.32772109 0
0.98779058 -0.028281648 0.059748173 0
0.9117493 -0.44272166 0.054182414 0
0.73384213 -0.87766528 0.046949279 0
4.7137499 5.0003605 0.20635419 0
6.0196128 2.4835639 0.32645643 0
0.97272635 -0.031078987 0.058842897 0
1.0268632 -0.50283289 0.061122034 0
0.76250321 -0.91876572 0.049833018 0
4.7286773 4.9795036 0.20260859 0
6.0194807 2.4577303 0.32482094 0
0.97258532 -0.034643263 0.059182614 0
nan nan nan 0
0.69557947 -0.84440571 0.046617612 0
4.7513385 4.9650474 0.196759 0
6.0378137 2.439435 0.3230468 0
0.95251107 -0.03775727 0.057635866 0
nan nan nan 0
0.695324 -0.85103399 0.047597717 0
4.769599 4.9476972 0.19196126 0
6.0607305 2.4228921 0.32151163 0
0.94739443 -0.040701486 0.057334106 0
1.0167456 -0.51181442 0.062245864 0
0.69862187 -0.86118847 0.048804611 0
4.7947106 4.9374013 0.18983808 0
6.0789618 2.4043767 0.31972173 0
0.95719415 -0.044972695 0.057937622 0
1.0813861 -0.54980558 0.067399666 0
0.69826347 -0.8678441 0.049996514 0
4.3689785 4.4661298 0.16796771 0
6.0831857 2.3803008 0.31719729 0
0.94206941 -0.047723178 0.05703235 0
nan nan nan 0
0.67947185 -0.85085511 0.049635705 0
4.3853998 4.4501691 0.16360593 0
6.1106024 2.3652399 0.31588012 0
0.94188821 -0.051175714 0.05703235 0
nan nan nan 0
0.67632711 -0.85331237 0.050395861 0
4.3876944 4.4199762 0.15764749 0
6.1286607 2.3464382 0.31407091 0
0.9466967 -0.054917753 0.057003099 0
1.0398142 -0.5431397 0.066409275 0
0.68861276 -0.87538505 0.052329302 0
4.4067063 4.4082446 0.1534225 0
6.1411805 2.3279109 0.31201744 0
0.94152778 -0.057751246 0.056703083 0
1.0954075 -0.57681006 0.070515126 0
0.68875831 -0.88157034 0.053344995 0
4.4299655 4.3991456 0.15148932 0
6.1599321 2.3067811 0.31019595 0
0.94629025 -0.06152555 0.057003099 0
1.0359457 -0.55035836 0.067432992 0
0.67600858 -0.87244779 0.053593732 0
4.442574 4.3794436 0.14701292 0
6.1777639 2.2876759 0.30951723 0
0.93113172 -0.063804738 0.056103051 0
nan nan nan 0
0.68191612 -0.88676602 0.055102225 0
4.4479318 4.3526959 0.14340101 0
6.1955886 2.2684896 0.30768353 0
0.93089163 -0.067217074 0.056103051 0
1.0933022 -0.59114629 0.072534926 0
0.67864376 -0.88923639 0.055687938 0
4.4675465 4.3399496 0.13699381 0
6.2040615 2.2458389 0.30307728 0
0.93064886 -0.070629261 0.055940155 0
nan nan nan 0
0.67535043 -0.89167869 0.056664094 0
4.4942517 4.3339891 0.13514425 0
6.2404671 2.2331817 0.30445385 0
0.93036413 -0.074038222 0.056265943 0
nan nan nan 0
0.70205623 -0.93403208 0.060009491 0
4.4957457 4.3037405 0.12928033 0
6.2534685 2.212013 0.30121022 0
0.93007904 -0.077773981 0.055940155 0
1.0036327 -0.55723894 0.068603039 0
0.71318978 -0.95681745 0.062333182 0
4.5267992 4.3002791 0.12533677 0
6.2710633 2.1924095 0.29934493 0
0.91984338 -0.0803141 0.055341862 0
0.97106999 -0.54382533 0.067097887 0
0.66214401 -0.89516294 0.058937594 0
4.5316668 4.2734141 0.12177433 0
6.2877893 2.1748846 0.29863387 0
0.91957194 -0.083363965 0.055341862 0
0.93446976 -0.52740651 0.065065347 0
0.66801482 -0.909392 0.06051825 0
4.5473599 4.2568331 0.11742578 0
6.2965674 2.1496599 0.29631141 0
0.92418909 -0.087524332 0.055803034 0
0.93231535 -0.53113651 0.065627173 0
0.66432762 -0.91202325 0.061502919 0
4.566638 4.2435818 0.11425593 0
6.3179564 2.1335952 0.29465106 0
0.9090113 -0.089129336 0.05458416 0
0.92188275 -0.52925003 0.065202221 0
0.65511227 -0.90633345 0.061544199 0
4.5822182 4.2268686 0.10990379 0
6.3360457 2.111407 0.29276124 0
0.91361141 -0.093284585 0.054882433 0
0.94562888 -0.54794133 0.067611165 0
0.65758002 -0.91680664 0.062881388 0
4.5977349 4.2100964 0.10555159 0
6.343061 2.0904005 0.29159561 0
0.90833348 -0.095790282 0.05458416 0
0.93516713 -0.54602969 0.067371711 0
0.65128869 -0.91509849 0.063583352 0
4.5917077 4.172276 0.10179525 0
6.3555264 2.0687153 0.28948066 0
0.88812053 -0.096951298 0.053546991 0
0.91162831 -0.53677577 0.066373304 0
0.63926578 -0.90521038 0.063509241 0
4.6255817 4.1722078 0.097856589 0
6.3868923 2.0530663 0.28939152 0
0.90759742 -0.10244501 0.054743569 0
0.92678756 -0.55028617 0.068190001 0
0.64736956 -0.92385298 0.065638028 0
4.6394296 4.1568789 0.094594955 0
6.3949189 2.0285878 0.28470784 0
0.89237094 -0.10388222 0.053689338 0
0.90762907 -0.54341996 0.067111857 0
0.64680874 -0.93028933 0.066521734 0
4.656127 4.1382647 0.090246074 0
6.4221292 2.0088809 0.28438139 0
0.89194673 -0.10746358 0.053689338 0
0.87551457 -0.52897811 0.065431505 0
0.63453764 -0.92050195 0.066618271 0
4.6661115 4.1195235 0.086914569 0
6.4718046 2.0008829 0.28391692 0
0.89158547 -0.11042079 0.053689338 0
0.87798834 -0.53445512 0.066288881 0
0.64836931 -0.94727397 0.069204099 0
4.6857109 4.1049199 0.081548177 0
6.4791427 1.9771637 0.2827346 0
0.89613503 -0.11432067 0.053829938 0
0.88024622 -0.54026127 0.067151457 0
0.65607375 -0.96610838 0.071426786 0
4.6894379 4.0779033 0.078097932 0
6.4960065 1.9563127 0.2807835 0
0.88086402 -0.11565516 0.052937731 0
0.89095807 -0.55134153 0.068673283 0
nan nan nan 0
4.6968236 4.0541887 0.073640689 0
6.5175462 1.9367735 0.28021711 0
0.89031744 -0.12021741 0.053689338 0
0.90159935 -0.56250697 0.070210755 0
nan nan nan 0
4.6851029 4.0142007 0.069994926 0
6.5438237 1.9185079 0.27985051 0
0.87998343 -0.12210779 0.053092789 0
0.90806711 -0.5709554 0.071057223 0
0.74185061 -1.1186916 0.084921815 0
4.715064 4.0099964 0.064820342 0
7.006928 2.0264208 0.29423514 0
0.87953913 -0.12533358 0.052937731 0
0.87644118 -0.55556297 0.069287077 0
0.70168853 -1.0674064 0.081709586 0
4.7037039 3.9693122 0.061231248 0
7.0191617 2.00211 0.29316273 0
0.88895106 -0.13000086 0.053532537 0
0.91640526 -0.58561498 0.073187634 0
0.69499898 -1.0657196 0.082722813 0
4.7604141 3.9873877 0.057443202 0
7.0457397 1.981795 0.29268795 0
0.87860584 -0.13177887 0.05278267 0
0.87230426 -0.56194621 0.070011504 0
0.68835455 -1.0640341 0.083061971 0
4.771174 3.9667351 0.054148152 0
7.0675941 1.9600173 0.28816703 0
0.87810791 -0.13499685 0.052937731 0
0.89112633 -0.57870424 0.072250828 0
0.68171614 -1.0622897 0.083836481 0
4.7895589 3.9524209 0.050940353 0
7.0795989 1.9354309 0.28708237 0
0.87267679 -0.13743788 0.052640326 0
0.88062036 -0.57648134 0.072123528 0
0.7126134 -1.119441 0.089070737 0
4.8086004 3.9371953 0.04555792 0
7.0963411 1.9120826 0.28619051 0
0.86232114 -0.13904782 0.051893074 0
0.86597985 -0.57144231 0.071641341 0
0.68982834 -1.0924665 0.087628804 0
4.8346629 3.929024 0.041318621 0
7.1130557 1.8886502 0.28401068 0
0.87657952 -0.14464529 0.05278267 0
0.88878852 -0.59118068 0.073894225 0
0.68049127 -1.0864803 0.087847143 0
4.8451552 3.9081514 0.038026124 0
7.1394076 1.8676623 0.280918 0
0.8612951 -0.14521332 0.05204552 0
0.88242984 -0.59162778 0.074290633 0
0.68436027 -1.1016124 0.090004377 0
4.8672776 3.8966355 0.032646231 0
7.1849599 1.8514689 0.28114459 0
0.87552202 -0.15091421 0.05278267 0
0.88848799 -0.60042149 0.075549692 0
0.68028504 -1.1040597 0.090909742 0
4.8900466 3.8841476 0.02942876 0
7.2062736 1.8288214 0.28041494 0
0.86514103 -0.15239201 0.052036285 0
0.88627058 -0.60366654 0.075736843 0
0.65279365 -1.0681895 0.08863686 0
4.8950601 3.8617253 0.026117029 0
7.2178226 1.8036199 0.27930489 0
0.85966426 -0.15467802 0.051740624 0
0.85945195 -0.58980197 0.074169055 0
0.65658879 -1.0833033 0.090801746 0
4.9013181 3.8376014 0.022815766 0
7.2339191 1.7808377 0.27577937 0
0.84435546 -0.15512057 0.051003478 0
0.86135399 -0.59576279 0.075072311 0
0.63716578 -1.0600028 0.089520276 0
4.9351048 3.8349621 0.017453268 0
7.2647715 1.7602175 0.27409491 0
0.84378999 -0.15821588 0.05085364 0
0.85505193 -0.59604883 0.075078666 0
0.64090443 -1.0751272 0.091477029 0
4.9339609 3.8037784 0.014135409 0
7.2664518 1.7324533 0.2700004 0
0.8480981 -0.16224362 0.051300012 0
0.87731236 -0.61635667 0.077795431 0
0.62894267 -1.0647559 0.091247037 0
