# .PCD v0.7 - Point Cloud Data file format
VERSION 0.7
FIELDS x y z intensity
SIZE 4 4 4 4
TYPE F F F F
COUNT 1 1 1 1
WIDTH 1471
HEIGHT 1
VIEWPOINT 0 0 0 1 0 0 0
POINTS 1471
DATA ascii
22.591097 -2.9862087 -1.3059444 0
10.776796 -6.6845016 -0.46279529 0
9.0512018 -13.398771 -0.13264179 0
12.148107 10.44902 -1.1514032 0
nan nan nan 0
22.5653 -3.0710025 -1.2931625 0
10.676237 -6.6764364 -0.45072234 0
9.0740442 -13.534196 -0.11944751 0
12.231219 10.442756 -1.1669315 0
nan nan nan 0
22.488298 -3.1525195 -1.2934407 0
10.480572 -6.6127486 -0.43491662 0
8.9690599 -13.484198 -0.10175551 0
12.717693 10.777759 -1.221267 0
14.423614 4.1277328 -1.0596113 0
22.537016 -3.235589 -1.2968528 0
10.172004 -6.4653158 -0.41668072 0
8.9518938 -13.555657 -0.087893471 0
12.731282 10.705553 -1.2361296 0
14.376067 4.057179 -1.057639 0
22.574036 -3.3294179 -1.2957137 0
9.8664618 -6.3220034 -0.40101588 0
8.9378147 -13.642817 -0.071165569 0
13.454955 11.230153 -1.3146923 0
14.31875 3.981708 -1.062718 0
22.537224 -3.4084349 -1.2903181 0
9.5118446 -6.1440721 -0.37960088 0
8.8693924 -13.657666 -0.056845255 0
13.245759 10.97343 -1.3023895 0
14.380986 3.942287 -1.0714893 0
22.707106 -3.5193038 -1.300774 0
9.2716627 -6.0372057 -0.36509678 0
8.8328428 -13.711143 -0.039852805 0
13.33295 10.959604 -1.3249941 0
14.414415 3.894706 -1.0755287 0
22.722601 -3.6151693 -1.2984539 0
8.9677153 -5.8906875 -0.3465578 0
8.8848543 -13.903549 -0.025918128 0
13.098065 10.686328 -1.3096223 0
15.257429 4.0596881 -1.1483387 0
22.591364 -3.6751897 -1.2956873 0
8.6804914 -5.745492 -0.33259359 0
8.7722769 -13.838906 -0.0085791657 0
12.516604 10.135746 -1.2590737 0
nan nan nan 0
22.538574 -3.7514472 -1.2894388 0
8.5556345 -5.7080564 -0.32142165 0
8.737463 -13.896361 0.0057299156 0
12.459737 10.014306 -1.2608815 0
nan nan nan 0
22.70698 -3.8650615 -1.2958424 0
8.2238035 -5.5303345 -0.30278936 0
8.7049866 -13.957979 0.022968523 0
12.473851 9.9470558 -1.2724458 0
18.267988 4.6428723 -1.3907815 0
22.465963 -3.9128575 -1.2789432 0
8.141511 -5.5184369 -0.29706573 0
8.7035589 -14.064795 0.03464127 0
11.861093 9.3942471 -1.2227012 0
18.142548 4.5469956 -1.3866403 0
22.475822 -3.9995065 -1.2843275 0
7.7623348 -5.3030505 -0.27901101 0
8.6571627 -14.105092 0.049104765 0
12.110256 9.5195675 -1.2556059 0
18.149485 4.4747386 -1.3956887 0
22.377735 -4.0667233 -1.2755834 0
7.6318212 -5.2550173 -0.27015442 0
8.6313744 -14.179385 0.066636495 0
12.181391 9.5000372 -1.2700468 0
nan nan nan 0
22.470882 -4.1687884 -1.2777542 0
7.6577921 -5.3143787 -0.26687676 0
6.2768521 -10.397049 0.059351426 0
11.982762 9.2747011 -1.2590988 0
14.864589 3.5467281 -1.1490489 0
22.347021 -4.234633 -1.2676442 0
7.4868731 -5.2365246 -0.25520375 0
6.2463727 -10.432796 0.072158463 0
11.936774 9.169343 -1.2639538 0
nan nan nan 0
22.345837 -4.3193111 -1.2724512 0
7.5575767 -5.3273335 -0.25504753 0
6.2157164 -10.468458 0.082871951 0
10.790318 8.2229958 -1.1487452 0
nan nan nan 0
22.290888 -4.3935032 -1.266253 0
7.5381436 -5.3550997 -0.2485922 0
6.1862726 -10.514792 0.095817588 0
11.808781 8.9309111 -1.2692955 0
nan nan nan 0
22.244272 -4.4731126 -1.2685437 0
7.2869172 -5.2169204 -0.23624049 0
8.4908285 -14.547792 0.14699848 0
11.753074 8.82125 -1.270159 0
14.212726 3.1691079 -1.1230229 0
22.311087 -4.5716929 -1.2693136 0
7.4827132 -5.3986883 -0.23678201 0
8.5125151 -14.708516 0.16313776 0
10.535453 7.8443065 -1.146856 0
14.540936 3.183732 -1.1532091 0
22.176676 -4.6289096 -1.2665899 0
7.3942151 -5.3761563 -0.23141031 0
8.4609642 -14.743826 0.17802033 0
11.432586 8.4473228 -1.2536365 0
14.849192 3.1942356 -1.1847208 0
22.208178 -4.7204938 -1.2733437 0
7.3534255 -5.389781 -0.22759522 0
8.4191351 -14.796295 0.19610958 0
11.346109 8.3193121 -1.2531763 0
15.621001 3.3004045 -1.2537358 0
21.814627 -4.7244606 -1.2439941 0
7.4061198 -5.4702444 -0.22341339 0
8.3500195 -14.800771 0.21059388 0
11.123537 8.0906239 -1.2348323 0
13.573255 2.8133564 -1.0958124 0
21.996834 -4.848393 -1.2593331 0
7.4502707 -5.5451741 -0.22049117 0
8.3005228 -14.83987 0.22258855 0
10.728106 7.7430477 -1.2017447 0
nan nan nan 0
21.754627 -4.8786845 -1.2503854 0
7.3299851 -5.497509 -0.21432608 0
8.2679777 -14.903554 0.23798537 0
nan nan nan 0
nan nan nan 0
21.866928 -4.9921308 -1.2618595 0
7.4773378 -5.6509643 -0.21596539 0
8.2517424 -15.00366 0.25404516 0
nan nan nan 0
nan nan nan 0
21.683149 -5.0338602 -1.2523106 0
nan nan nan 0
8.2061596 -15.051162 0.26930198 0
nan nan nan 0
nan nan nan 0
20.649759 -4.7939534 -1.2371719 0
nan nan nan 0
8.2062902 -15.051401 0.25134984 0
10.111311 7.2469983 -1.1693699 0
nan nan nan 0
20.593567 -4.7014275 -1.2438629 0
7.1449432 -5.4017177 -0.22985558 0
8.2591524 -15.017132 0.2273469 0
10.508579 7.5901837 -1.2162405 0
13.945151 2.8346386 -1.1899524 0
20.390232 -4.5764432 -1.2525209 0
6.9446039 -5.2103662 -0.23189263 0
8.2534943 -14.88357 0.19902234 0
10.664826 7.7655258 -1.2331207 0
13.636749 2.8265171 -1.1621059 0
20.128424 -4.4402547 -1.2462624 0
6.9073315 -5.142942 -0.23904189 0
8.3300676 -14.892691 0.178701 0
10.968579 8.0424957 -1.2665299 0
13.806682 2.9145579 -1.1774899 0
19.968334 -4.3282518 -1.2460974 0
6.8334775 -5.0491281 -0.24474859 0
8.355216 -14.809982 0.15729816 0
10.648508 7.8737307 -1.2262174 0
14.535607 3.12678 -1.2432836 0
19.827965 -4.2181811 -1.246972 0
6.8437009 -5.0180097 -0.2518664 0
8.3971672 -14.757689 0.13632271 0
10.897166 8.1165819 -1.2485394 0
13.852361 3.0329688 -1.1857859 0
19.759605 -4.1279964 -1.2523229 0
6.8537474 -4.9868531 -0.26044592 0
8.4935741 -14.800651 0.11913521 0
10.923446 8.1985741 -1.2501773 0
13.924031 3.1021848 -1.190379 0
19.651529 -4.0303054 -1.2585882 0
6.9893322 -5.0464306 -0.27091777 0
8.5076962 -14.706108 0.09785483 0
10.983738 8.3099499 -1.2534486 0
13.498785 3.0618937 -1.1574537 0
19.469843 -3.9187367 -1.256464 0
6.8897386 -4.9362068 -0.27523893 0
8.5692358 -14.676247 0.077120595 0
11.092507 8.4563465 -1.2595719 0
13.385515 3.0878291 -1.1487041 0
19.479637 -3.8429413 -1.2596136 0
6.9156919 -4.916543 -0.28444937 0
8.6255436 -14.649112 0.059341073 0
10.777779 8.2790499 -1.2177067 0
13.262187 3.1130598 -1.1367434 0
19.394962 -3.7524366 -1.263626 0
6.9988341 -4.9371343 -0.29310927 0
6.2158442 -10.468675 0.027624175 0
10.864381 8.4121017 -1.2262968 0
13.386392 3.1940267 -1.1483852 0
19.31522 -3.6636167 -1.2609929 0
7.1476703 -5.0029941 -0.30619532 0
6.2284985 -10.402942 0.014813478 0
10.983368 8.5688047 -1.2334617 0
14.01399 3.398109 -1.2007514 0
19.15189 -3.5565081 -1.2596707 0
7.3504667 -5.1049032 -0.32033482 0
6.2699456 -10.389707 0 0
11.18734 8.7940865 -1.2524707 0
14.175003 3.4948339 -1.2156882 0
19.090513 -3.4727762 -1.2649907 0
7.3688483 -5.0777354 -0.32970631 0
6.3157759 -10.379462 -0.014844021 0
11.28301 8.9395971 -1.256888 0
13.103757 3.2817125 -1.1224651 0
19.122543 -3.4062438 -1.2696819 0
7.5810747 -5.1831002 -0.34476992 0
8.6730194 -14.136461 -0.037630137 0
10.896586 8.6986303 -1.2075777 0
14.380784 3.6602702 -1.2278343 0
18.97855 -3.3020484 -1.2626073 0
7.8083043 -5.2925839 -0.36402726 0
8.6905556 -14.049259 -0.054782294 0
nan nan nan 0
14.328676 3.7029796 -1.2245359 0
18.945042 -3.2281268 -1.269727 0
8.1655388 -5.4952927 -0.38499132 0
8.7287178 -13.996031 -0.074851669 0
nan nan nan 0
14.368234 3.7694356 -1.2264787 0
18.980694 -3.1626582 -1.2814506 0
8.3723755 -5.5900164 -0.40081376 0
8.7533054 -13.921556 -0.088975579 0
11.57612 9.4547176 -1.2656026 0
14.349252 3.8234046 -1.2208837 0
18.795193 -3.0609915 -1.2681609 0
8.5715485 -5.6776881 -0.42013401 0
nan nan nan 0
11.276436 9.2790604 -1.2288475 0
13.767509 3.7224934 -1.1725399 0
18.812561 -2.9829826 -1.2718176 0
8.7443562 -5.7417841 -0.43478653 0
8.8143063 -13.787848 -0.12852909 0
11.793671 9.7808666 -1.2785245 0
14.296331 3.9244463 -1.2162478 0
18.861124 -2.9265981 -1.2844765 0
9.1272421 -5.9499741 -0.45855561 0
8.8945103 -13.801578 -0.14328972 0
11.743128 9.8118162 -1.2661784 0
14.315864 3.9862897 -1.2139224 0
18.694921 -2.8240037 -1.2756904 0
9.402524 -6.0757837 -0.47898611 0
8.9749126 -13.814873 -0.16102152 0
11.939667 10.043453 -1.2854705 0
14.278584 4.0269771 -1.2118869 0
18.723261 -2.7648106 -1.2869467 0
9.5357857 -6.1171665 -0.49464387 0
8.9158058 -13.614404 -0.17894936 0
12.092152 10.258519 -1.2925714 0
14.252417 4.0841227 -1.2058976 0
18.60536 -2.6744442 -1.2781274 0
9.8960848 -6.2947931 -0.52027971 0
8.9517651 -13.560608 -0.1956903 0
11.922321 10.182625 -1.267002 0
14.189696 4.1224875 -1.1992651 0
18.57979 -2.6012993 -1.2855763 0
10.265015 -6.4767418 -0.55116028 0
9.0068073 -13.535823 -0.21567447 0
12.07054 10.385968 -1.2783985 0
14.326734 4.2220216 -1.2122083 0
18.475298 -2.5176618 -1.280969 0
10.508602 -6.5767093 -0.56944573 0
nan nan nan 0
12.057604 10.455679 -1.2700579 0
14.523194 4.3323126 -1.224715 0
18.672518 -2.4715464 -1.2972785 0
10.731739 -6.6617422 -0.58904737 0
9.1059618 -13.474764 -0.24980263 0
12.046474 10.523628 -1.2560844 0
14.402671 4.353909 -1.2106026 0
18.601845 -2.3928514 -1.2983285 0
11.10022 -6.8342428 -0.61701423 0
nan nan nan 0
11.892309 10.46605 -1.2356555 0
14.260827 4.3763075 -1.1949699 0
18.476625 -2.3079352 -1.2922552 0
11.563752 -7.0613151 -0.65318805 0
6.8790407 -10.012809 -0.21204673 0
11.735147 10.404308 -1.2122649 0
14.146279 4.3925366 -1.1865855 0
18.504709 -2.239316 -1.3001465 0
12.183036 -7.3783088 -0.69411182 0
6.6651011 -9.6256275 -0.21867181 0
12.718263 11.363454 -1.303349 0
11.652727 3.6673839 -0.97430956 0
18.363953 -2.1540191 -1.2929362 0
20.305059 -12.195688 -1.1708745 0
6.5939317 -9.4556952 -0.22537047 0
12.773549 11.497318 -1.3012569 0
11.567007 3.6915028 -0.96410853 0
18.45648 -2.0897989 -1.3021072 0
20.215828 -12.031931 -1.1793989 0
6.5828066 -9.3594398 -0.23569179 0
12.68381 11.500977 -1.2873847 0
11.540793 3.7253501 -0.95868808 0
18.378925 -2.0160658 -1.3026173 0
20.052649 -11.844934 -1.187957 0
6.793282 -9.5838509 -0.25222433 0
12.311058 11.245482 -1.2390939 0
11.539615 3.7784162 -0.95563167 0
18.356882 -1.9391043 -1.3037306 0
19.709166 -11.530953 -1.1807204 0
6.8310843 -9.5626984 -0.2666896 0
12.844421 11.823469 -1.2850816 0
nan nan nan 0
18.363867 -1.87181 -1.3037306 0
19.573679 -11.355595 -1.1819832 0
6.6790128 -9.2777338 -0.27140114 0
13.14554 12.18996 -1.3039411 0
15.053682 5.0456576 -1.2383772 0
18.291498 -1.7934971 -1.2980943 0
19.389393 -11.153899 -1.1840378 0
6.6936092 -9.2298889 -0.28063893 0
13.188899 12.320383 -1.3000463 0
15.402383 5.228404 -1.2687049 0
18.25198 -1.7285341 -1.3045237 0
19.308477 -11.022296 -1.1924237 0
6.550262 -8.9629202 -0.28488237 0
13.169899 12.393336 -1.2867799 0
15.638119 5.372427 -1.283929 0
18.149498 -1.645346 -1.2967166 0
19.212772 -10.865638 -1.1992645 0
nan nan nan 0
12.267016 11.628762 -1.1938241 0
15.091372 5.2465129 -1.2349997 0
18.233944 -1.58885 -1.3119781 0
19.039169 -10.684283 -1.1976752 0
nan nan nan 0
13.30847 12.713407 -1.2870069 0
15.109141 5.3178048 -1.2324911 0
18.130835 -1.5065562 -1.3041133 0
18.98044 -10.551364 -1.2141178 0
nan nan nan 0
13.402762 12.897766 -1.2843778 0
15.108739 5.3799801 -1.2284272 0
18.146175 -1.4408827 -1.3048283 0
18.875963 -10.398609 -1.2161912 0
3.8216126 -5.0677695 -0.18838064 0
13.353394 12.935819 -1.2707099 0
9.6241617 3.4687068 -0.78178084 0
18.135723 -1.3763653 -1.3101046 0
18.905401 -10.333257 -1.2271906 0
3.7566741 -4.9474421 -0.19088106 0
13.651921 13.331658 -1.2874713 0
9.5788507 3.4920974 -0.77555501 0
18.030987 -1.301967 -1.3053569 0
18.622189 -10.089992 -1.2175242 0
3.709542 -4.8448658 -0.19389266 0
13.555065 13.325176 -1.2658353 0
9.552207 3.5221012 -0.77086359 0
18.12022 -1.2416673 -1.3114785 0
18.640514 -10.011717 -1.2348416 0
3.7315855 -4.8403177 -0.19954383 0
nan nan nan 0
9.5401068 3.5555172 -0.76730973 0
18.099972 -1.1704726 -1.309678 0
18.671911 -9.9405756 -1.2493181 0
3.7338433 -4.8067083 -0.20510195 0
15.094815 15.063232 -1.3864992 0
9.5214663 3.5921659 -0.76160568 0
18.093727 -1.1034899 -1.3152856 0
18.310354 -9.6621237 -1.2336276 0
3.6112578 -4.6105771 -0.20246674 0
15.145925 15.225435 -1.3774908 0
9.5317783 3.6360199 -0.75991035 0
17.993095 -1.0311738 -1.3076869 0
18.249437 -9.540575 -1.2378672 0
3.5475142 -4.4951572 -0.20397192 0
15.055461 15.245852 -1.3630713 0
9.53195 3.6780732 -0.75745827 0
18.016949 -0.95684147 -1.3122834 0
18.091806 -9.3658867 -1.2388895 0
3.4829762 -4.38027 -0.20520476 0
15.154014 15.458569 -1.358148 0
9.5652294 3.7312503 -0.75577927 0
17.975197 -0.89485824 -1.309019 0
18.029148 -9.2577696 -1.2395905 0
3.5394826 -4.4179964 -0.21351488 0
15.094595 15.511274 -1.3389479 0
9.5530481 3.7630455 -0.75219524 0
17.997826 -0.8298676 -1.3167591 0
17.706364 -9.0101681 -1.2290412 0
3.56181 -4.4126229 -0.21884054 0
15.129174 15.666718 -1.3320791 0
9.5803442 3.8163559 -0.75368327 0
17.96102 -0.75907046 -1.3138434 0
17.796425 -8.9740314 -1.2469695 0
3.58094 -4.4032044 -0.22596747 0
15.165703 15.820175 -1.3211966 0
nan nan nan 0
18.01351 -0.69515783 -1.3174878 0
17.500004 -8.7404394 -1.2306942 0
3.5937872 -4.3860621 -0.22972724 0
15.338938 16.118732 -1.321939 0
15.375472 6.2620955 -1.1987678 0
18.140749 -0.62714893 -1.3265991 0
17.498196 -8.651947 -1.2452176 0
3.6620898 -4.4330039 -0.2399908 0
15.259977 16.153906 -1.300768 0
15.740198 6.4780021 -1.2230747 0
18.022743 -0.56009024 -1.3241465 0
17.302197 -8.4837484 -1.2393923 0
3.6046779 -4.3310785 -0.24011262 0
15.572428 16.594555 -1.3161438 0
15.672024 6.514008 -1.2106048 0
17.969845 -0.49252701 -1.3201184 0
17.24283 -8.3763876 -1.2430114 0
3.6221206 -4.3228006 -0.24426283 0
15.390974 16.533701 -1.2826743 0
15.862232 6.6678686 -1.2213186 0
17.976587 -0.42364174 -1.3204845 0
17.184351 -8.2665758 -1.2465255 0
3.6102662 -4.2736859 -0.24817432 0
15.875567 17.168079 -1.3114208 0
15.992139 6.784966 -1.223905 0
17.987991 -0.35794985 -1.3212169 0
17.056309 -8.1281338 -1.2450035 0
3.6775022 -4.3210502 -0.25865209 0
15.986304 17.42766 -1.301495 0
15.840217 6.7989454 -1.2084002 0
17.904293 -0.28438878 -1.3181171 0
16.939301 -7.9890924 -1.2439611 0
3.7044268 -4.3174515 -0.26429972 0
16.080635 17.653809 -1.2974626 0
16.440636 7.1213126 -1.2465721 0
17.984955 -0.22287805 -1.3239901 0
13.715796 -6.4132752 -1.0136344 0
3.6630702 -4.2407141 -0.2652452 0
16.371534 18.106026 -1.3049154 0
16.437674 7.1916943 -1.2420444 0
18.016031 -0.15722352 -1.3199036 0
13.531748 -6.2640128 -1.0034763 0
3.6620743 -4.2082825 -0.26795787 0
16.739391 18.649807 -1.3177446 0
16.579334 7.3296466 -1.2453294 0
18.095806 -0.091591895 -1.3320656 0
13.39964 -6.1433229 -1.004926 0
3.65095 -4.1645765 -0.27183861 0
16.95735 19.032513 -1.3180795 0
16.644054 7.4313045 -1.2426394 0
18.07608 -0.022084108 -1.3305973 0
13.321661 -6.0485816 -1.0051049 0
3.672642 -4.1584735 -0.27717054 0
16.858461 19.061726 -1.2935494 0
16.044283 7.2341604 -1.1905746 0
18.066311 0.037838049 -1.3267099 0
13.187547 -5.9322524 -1.0010251 0
3.6995218 -4.1610165 -0.28302738 0
16.822264 19.148378 -1.273338 0
16.28396 7.4073029 -1.203903 0
18.090984 0.10419773 -1.3285408 0
13.222548 -5.8898234 -1.0071137 0
3.6879296 -4.1174874 -0.28582057 0
16.723152 19.176863 -1.2488889 0
16.790886 7.7158442 -1.233843 0
18.07995 0.1798721 -1.3341199 0
13.227344 -5.8284388 -1.013294 0
3.7209911 -4.1209931 -0.29195696 0
16.663265 19.250172 -1.2274061 0
16.337282 7.5800486 -1.1993872 0
18.174225 0.24108617 -1.3379385 0
13.255252 -5.788322 -1.0215669 0
3.7317865 -4.1040568 -0.29750341 0
16.49239 19.19449 -1.1978587 0
16.843081 7.8898754 -1.2288531 0
18.14325 0.31035653 -1.335736 0
13.24484 -5.7233224 -1.0266559 0
3.7432547 -4.0864773 -0.30207184 0
16.393429 19.221395 -1.1736857 0
nan nan nan 0
18.196831 0.37799194 -1.3397738 0
13.425885 -5.7432499 -1.044174 0
3.8000541 -4.1151958 -0.31120339 0
16.297707 19.251629 -1.1498178 0
17.020329 8.1365194 -1.2265685 0
18.37439 0.45547813 -1.3561959 0
13.829545 -5.8503637 -1.0816357 0
3.7877245 -4.0717993 -0.31383762 0
16.224463 19.308168 -1.1275821 0
16.859182 8.1282778 -1.2037702 0
18.248545 0.51610303 -1.3406252 0
15.909974 -6.6650763 -1.2516019 0
3.7990205 -4.0540452 -0.31840444 0
16.167007 19.383598 -1.1064491 0
16.69524 8.1247854 -1.1844209 0
18.22683 0.58235425 -1.3359777 0
15.906251 -6.5950909 -1.2554415 0
3.817127 -4.043561 -0.32257265 0
16.090214 19.435909 -1.079589 0
15.729818 7.7263942 -1.108719 0
18.18922 0.64789587 -1.3397738 0
15.73595 -6.4569917 -1.2490774 0
3.8248472 -4.0221043 -0.3268373 0
12.547128 15.275123 -0.82850981 0
16.974657 8.4189081 -1.1887709 0
18.186831 0.71774167 -1.3365971 0
15.7127 -6.3802657 -1.2542951 0
3.8221011 -3.9898298 -0.33018944 0
15.88824 19.487848 -1.031859 0
17.243231 8.6310034 -1.1996512 0
18.194044 0.78482479 -1.3373294 0
15.593239 -6.2621198 -1.248728 0
3.8434286 -3.9827681 -0.33561617 0
15.810982 19.538876 -1.0095152 0
17.670465 8.9259939 -1.2281742 0
18.305843 0.85687762 -1.3425535 0
15.531867 -6.1714616 -1.2537266 0
3.8834555 -3.9920504 -0.34453908 0
15.771201 19.636463 -0.98514783 0
17.709343 9.0272541 -1.2227201 0
18.321871 0.928146 -1.3504186 0
15.493444 -6.090539 -1.2575809 0
3.9125166 -3.9911475 -0.35065141 0
14.198408 17.798775 -0.87466621 0
17.745058 9.1236362 -1.2133954 0
18.294151 0.99397814 -1.3389904 0
15.321335 -5.9550629 -1.2446312 0
3.9115806 -3.9638126 -0.35231504 0
14.161551 17.88666 -0.85250324 0
17.783129 9.2257748 -1.2042655 0
18.320488 1.0627692 -1.3379742 0
15.361265 -5.9058671 -1.2518861 0
3.9153545 -3.938658 -0.3552452 0
15.491785 19.714853 -0.91501456 0
18.064831 9.4641476 -1.2151886 0
18.300875 1.1321542 -1.3432841 0
15.312299 -5.8227139 -1.2547753 0
3.9414635 -3.9332168 -0.36203396 0
15.419909 19.772123 -0.89313358 0
18.854836 9.9578543 -1.259341 0
18.406307 1.206413 -1.3481017 0
15.222134 -5.7216234 -1.2512872 0
3.9684777 -3.9339962 -0.36723277 0
15.292845 19.758106 -0.86376601 0
19.150017 10.212275 -1.2703817 0
18.401999 1.2738838 -1.3448821 0
15.172501 -5.6395884 -1.2511836 0
3.9732902 -3.9072683 -0.37208495 0
15.229912 19.826504 -0.84246725 0
19.216736 10.34282 -1.2659674 0
18.332548 1.3398246 -1.3369477 0
15.112499 -5.5543284 -1.258684 0
4.0058808 -3.9091752 -0.37863511 0
15.136546 19.855175 -0.81078643 0
19.30138 10.471072 -1.2622882 0
18.426956 1.414642 -1.3442017 0
14.969317 -5.436554 -1.2506044 0
4.0056114 -3.8803518 -0.38215217 0
15.061078 19.907091 -0.78884053 0
19.338768 10.592053 -1.2520602 0
18.416912 1.4817895 -1.3406143 0
14.984039 -5.3798194 -1.2557703 0
4.0375905 -3.8827465 -0.38777205 0
15.027923 20.008038 -0.76889902 0
19.868429 10.977014 -1.2770253 0
18.411322 1.5525141 -1.3373896 0
14.975266 -5.3147883 -1.2561848 0
4.0624213 -3.8780663 -0.39272889 0
15.008722 20.135746 -0.74536437 0
18.930319 10.549466 -1.2078234 0
18.425144 1.6217128 -1.3420618 0
14.839518 -5.2025409 -1.2541602 0
4.0980277 -3.8834493 -0.4007341 0
nan nan nan 0
18.898279 10.618234 -1.1967517 0
18.493504 1.6993144 -1.3442479 0
14.862781 -5.1496043 -1.2600484 0
4.1737819 -3.9263022 -0.41075277 0
15.790199 21.511484 -0.74071079 0
19.246353 10.906808 -1.2096992 0
18.547426 1.7728462 -1.3388243 0
14.769269 -5.053771 -1.2504663 0
4.1411734 -3.8657625 -0.41104937 0
15.71032 21.552126 -0.71702057 0
nan nan nan 0
18.620438 1.8487206 -1.341292 0
14.730414 -4.9802403 -1.2538171 0
4.1148162 -3.8130302 -0.41196483 0
15.711951 21.737141 -0.69296527 0
20.754684 11.963411 -1.2806267 0
18.612972 1.9201803 -1.3445579 0
14.719375 -4.9164658 -1.2622404 0
4.1334939 -3.7996111 -0.41723076 0
15.679133 21.860052 -0.67155564 0
20.737171 12.05479 -1.2696691 0
18.640753 1.9921217 -1.3437943 0
14.624556 -4.8224549 -1.2525121 0
4.1987395 -3.8312891 -0.42638668 0
15.653288 21.977537 -0.65000594 0
21.016678 12.320552 -1.2724836 0
18.59886 2.0566189 -1.3380262 0
14.556007 -4.7407713 -1.2559036 0
4.1503148 -3.7579992 -0.42491442 0
15.605818 22.098082 -0.6139192 0
21.928631 12.968555 -1.3084122 0
18.799166 2.151866 -1.3497015 0
14.55431 -4.6812854 -1.2542683 0
4.2231636 -3.7958856 -0.43493274 0
5.6741261 8.0974741 -0.21747491 0
nan nan nan 0
18.682421 2.2079039 -1.3385917 0
14.514347 -4.6070104 -1.2599939 0
4.1884065 -3.7369826 -0.4348672 0
5.6102533 8.0630846 -0.20575927 0
10.099769 6.0733523 -0.59082603 0
18.773453 2.2884619 -1.3423884 0
14.421772 -4.5195093 -1.2505111 0
4.2317004 -3.7478437 -0.44190335 0
5.5807824 8.083766 -0.19547269 0
10.052082 6.0949535 -0.5831688 0
18.968063 2.3827713 -1.3535661 0
14.381474 -4.4463096 -1.2508179 0
4.2982445 -3.7774293 -0.45135388 0
5.5738115 8.1372986 -0.18766132 0
10.03002 6.1319652 -0.57496178 0
18.780943 2.4325523 -1.3375479 0
14.368662 -4.3847156 -1.2535777 0
4.3568325 -3.8007071 -0.46111751 0
5.5412464 8.1536961 -0.17724259 0
10.041744 6.1898079 -0.57073933 0
18.960001 2.5264363 -1.3475957 0
14.293569 -4.3045969 -1.2508886 0
4.3252778 -3.7453516 -0.46034178 0
nan nan nan 0
22.409863 13.927214 -1.2581321 0
18.871784 2.5851128 -1.3386488 0
14.290468 -4.2438841 -1.2544223 0
4.3462281 -3.735707 -0.46614531 0
8.2383318 12.31092 -0.23528929 0
22.47031 14.068289 -1.2409512 0
18.975777 2.6736264 -1.3400217 0
14.257693 -4.1773462 -1.2554159 0
4.3793745 -3.7350547 -0.47018123 0
8.1683989 12.303744 -0.21910931 0
22.42458 14.170753 -1.2231337 0
18.906843 2.7346237 -1.3325022 0
14.195906 -4.1028066 -1.2538382 0
4.4497042 -3.7669525 -0.48239297 0
8.1233711 12.333786 -0.20364378 0
22.31901 14.207828 -1.2060565 0
19.069611 2.8295598 -1.3413144 0
14.163219 -4.0344992 -1.2547513 0
4.4860444 -3.7695782 -0.48998037 0
8.0864096 12.376176 -0.19094941 0
24.284071 15.596082 -1.2954253 0
19.147829 2.9163501 -1.3408004 0
14.072394 -3.9529214 -1.2454129 0
4.5047703 -3.7545652 -0.4934676 0
12.15277 18.749424 -0.26128989 0
24.149279 15.622869 -1.2658421 0
19.236275 3.002002 -1.3375125 0
14.101452 -3.9027281 -1.2517937 0
4.5981846 -3.805301 -0.50643897 0
22.981171 35.74194 -0.45241481 0
24.09259 15.711753 -1.245762 0
19.259851 3.0780334 -1.3365072 0
14.052972 -3.833915 -1.2487954 0
4.6439543 -3.8118732 -0.51401544 0
11.981476 18.770981 -0.21766002 0
23.985472 15.767496 -1.2231269 0
19.272505 3.1559937 -1.3382162 0
13.966137 -3.7526672 -1.2448747 0
4.7386465 -3.8606157 -0.52830005 0
11.962298 18.907867 -0.19135121 0
23.88522 15.839273 -1.2012031 0
19.541468 3.2736263 -1.3542418 0
13.945668 -3.6924171 -1.2469087 0
4.8926044 -3.9548881 -0.5481925 0
10.213546 16.269167 -0.14752075 0
23.914743 15.985358 -1.1905386 0
19.530033 3.3453465 -1.3438672 0
13.939406 -3.6361396 -1.2502152 0
5.0116615 -4.0208459 -0.56439739 0
nan nan nan 0
23.655411 15.925758 -1.1503384 0
19.508276 3.415266 -1.3362774 0
13.953265 -3.5825894 -1.2502152 0
5.049511 -4.0208807 -0.57040232 0
11.712592 18.964302 -0.12059991 0
23.496885 15.956481 -1.1258746 0
nan nan nan 0
13.90814 -3.5167177 -1.2475313 0
5.146584 -4.0659857 -0.58536893 0
11.581746 18.89229 -0.10055854 0
23.42371 16.02054 -1.1100258 0
nan nan nan 0
13.892116 -3.4559684 -1.2499294 0
5.2748585 -4.1360173 -0.60176843 0
11.696902 19.238022 -0.07859201 0
18.256325 12.584793 -0.85182542 0
19.76898 3.6889517 -1.3427702 0
13.827068 -3.3860199 -1.2454556 0
5.4429159 -4.2356691 -0.6240195 0
nan nan nan 0
23.175589 16.101454 -1.0643708 0
nan nan nan 0
13.805648 -3.3246379 -1.247362 0
5.6125064 -4.3331456 -0.64654154 0
nan nan nan 0
23.043497 16.135231 -1.0364302 0
19.986986 3.8850765 -1.3381044 0
13.866206 -3.2854991 -1.2517371 0
5.7228446 -4.3849487 -0.66247165 0
nan nan nan 0
22.981956 16.224003 -1.0167909 0
20.01689 3.9670813 -1.3374939 0
13.742122 -3.2029488 -1.2419494 0
5.8099375 -4.4179788 -0.67452866 0
nan nan nan 0
22.817051 16.233219 -0.99254602 0
20.129829 4.0661983 -1.3388278 0
13.73933 -3.1467264 -1.2455544 0
5.9258409 -4.4703078 -0.69121385 0
nan nan nan 0
22.745773 16.308405 -0.97247553 0
20.212032 4.1636419 -1.3417317 0
13.779711 -3.102865 -1.2506604 0
6.0709066 -4.5416183 -0.71134192 0
nan nan nan 0
22.662357 16.374689 -0.94215554 0
20.494968 4.3002911 -1.3542105 0
13.635486 -3.0154247 -1.2414234 0
6.2557874 -4.6425705 -0.7363975 0
24.901136 43.409534 0.21836179 0
22.542248 16.413996 -0.91529584 0
20.455593 4.3703642 -1.3379945 0
13.690459 -2.9749923 -1.2429628 0
6.4689469 -4.7640929 -0.76225847 0
nan nan nan 0
22.438126 16.464359 -0.89406222 0
20.493528 4.4570723 -1.3341846 0
13.731007 -2.9286361 -1.2456139 0
6.5100446 -4.7576566 -0.7707215 0
nan nan nan 0
22.273893 16.469784 -0.86087954 0
20.705469 4.5865006 -1.3454028 0
13.643945 -2.857825 -1.2392098 0
6.6970673 -4.8549972 -0.79647815 0
24.427023 43.671204 0.38427579 0
22.229883 16.56361 -0.84214717 0
20.942572 4.7196121 -1.3468772 0
13.600454 -2.7967203 -1.236763 0
6.993238 -5.0307055 -0.83405572 0
24.243042 43.681648 0.4359777 0
22.140646 16.617626 -0.81194341 0
21.076376 4.8310061 -1.3490349 0
13.684322 -2.7592435 -1.243417 0
7.0203671 -5.009428 -0.83802992 0
28.437696 51.68523 0.58689481 0
22.044382 16.672035 -0.78168118 0
21.112906 4.9208961 -1.3373253 0
13.679901 -2.7062123 -1.2396524 0
7.1965914 -5.0954704 -0.86304545 0
28.235189 51.744015 0.65846407 0
21.920055 16.704655 -0.75536948 0
nan nan nan 0
13.704859 -2.6565082 -1.2409806 0
7.1988091 -5.0575309 -0.86263287 0
28.287588 51.840042 0.71122885 0
nan nan nan 0
21.788628 5.1546292 -1.3380576 0
13.871865 -2.6939049 -1.2363042 0
7.2573199 -5.096746 -0.86172497 0
28.249338 51.342888 0.65461051 0
22.099106 16.701298 -0.73503244 0
21.997419 5.1189594 -1.3418067 0
14.033493 -2.7812519 -1.2390722 0
7.2588611 -5.1395597 -0.85327715 0
24.203859 43.61105 0.51362729 0
22.255823 16.691929 -0.75278211 0
22.002316 5.0311198 -1.340917 0
14.189433 -2.8662462 -1.2512143 0
6.9324098 -4.9466653 -0.81252873 0
24.41011 43.605236 0.47971818 0
22.276331 16.580086 -0.77081645 0
22.093882 4.9669166 -1.3414127 0
14.247483 -2.9349554 -1.247087 0
6.8493967 -4.9272308 -0.79609525 0
nan nan nan 0
22.348574 16.506912 -0.79062963 0
21.970144 4.8545742 -1.3406926 0
14.378237 -3.0168676 -1.2569084 0
6.4794445 -4.7006841 -0.74964547 0
nan nan nan 0
22.440948 16.448362 -0.80147964 0
22.178852 4.8114476 -1.3522912 0
14.484115 -3.0971935 -1.2593824 0
6.4747539 -4.7335997 -0.74404502 0
24.8613 43.287556 0.33107951 0
22.559795 16.42075 -0.81352323 0
22.093824 4.7082796 -1.3460459 0
14.35647 -3.1249673 -1.241523 0
6.3850083 -4.7057142 -0.72742605 0
25.02243 43.218094 0.27891612 0
22.63962 16.352247 -0.83374906 0
22.056965 4.6159759 -1.3467075 0
14.3648 -3.1819692 -1.2380712 0
6.2082214 -4.6106319 -0.70376199 0
29.812067 51.058144 0.26829982 0
22.751732 16.306665 -0.85523099 0
21.951839 4.5060654 -1.3470732 0
14.547101 -3.2809987 -1.2522389 0
6.0281148 -4.5112472 -0.68124008 0
nan nan nan 0
22.841204 16.232399 -0.86592865 0
22.007349 4.4334626 -1.3494734 0
14.564543 -3.3410766 -1.2495333 0
5.8920422 -4.4448113 -0.6599949 0
nan nan nan 0
22.99398 16.214458 -0.8891235 0
21.945341 4.3373342 -1.3407688 0
14.595913 -3.4073186 -1.2454354 0
5.8444476 -4.4426117 -0.65002596 0
nan nan nan 0
23.086773 16.159529 -0.91021866 0
21.799675 4.2216353 -1.338648 0
14.753439 -3.5011621 -1.2546339 0
5.6940413 -4.3613024 -0.63002497 0
nan nan nan 0
23.174316 16.094576 -0.92119747 0
21.897898 4.1574454 -1.3515435 0
14.740523 -3.5579391 -1.2466943 0
5.6184583 -4.3377409 -0.61850697 0
nan nan nan 0
18.270069 12.589562 -0.7399174 0
21.741484 4.0452476 -1.3370917 0
14.790726 -3.6274765 -1.2467045 0
5.4337931 -4.227047 -0.59503722 0
11.610608 18.939369 -0.019386241 0
23.468107 16.044895 -0.96294618 0
21.780947 3.9661233 -1.3463286 0
14.970963 -3.7299051 -1.2603298 0
5.3520947 -4.1950698 -0.5805968 0
11.695704 18.92218 -0.038824826 0
23.538883 15.966997 -0.97338271 0
21.80895 3.896548 -1.3433726 0
14.958702 -3.7823558 -1.2495583 0
5.2503362 -4.1479535 -0.56540024 0
nan nan nan 0
23.600534 15.882828 -1.0033442 0
21.753565 3.8044298 -1.3506989 0
15.002453 -3.851975 -1.2571049 0
5.0482135 -4.0184078 -0.54181403 0
10.230083 16.282885 -0.077193961 0
23.774656 15.873716 -1.0182577 0
21.768661 3.7170749 -1.3506989 0
15.093117 -3.9427164 -1.2551131 0
5.0596843 -4.0608258 -0.53794909 0
10.268258 16.211437 -0.090430401 0
23.832079 15.786075 -1.0382148 0
21.748547 3.627753 -1.3447139 0
15.131981 -4.0121717 -1.2540597 0
4.8738761 -3.9425633 -0.5153932 0
12.073925 18.908539 -0.1292156 0
23.948086 15.736935 -1.0457569 0
21.534653 3.5109994 -1.3383291 0
15.209252 -4.0923824 -1.2533987 0
4.7516413 -3.8725827 -0.49750292 0
12.032125 18.691687 -0.14743385 0
24.063585 15.686853 -1.0683639 0
21.566862 3.4351509 -1.3433652 0
15.328479 -4.1876464 -1.2589581 0
4.5759087 -3.7573564 -0.4763816 0
23.144951 35.667351 -0.31910601 0
24.152382 15.61292 -1.0897429 0
21.422087 3.3278008 -1.3335416 0
15.35668 -4.255898 -1.2569498 0
4.5239577 -3.7425432 -0.46827278 0
12.258425 18.747114 -0.19156501 0
24.28046 15.569831 -1.1080641 0
21.551188 3.2747018 -1.3447139 0
15.35175 -4.3122911 -1.2521701 0
4.5059752 -3.7569025 -0.46377963 0
8.136343 12.344097 -0.13934328 0
24.37886 15.507131 -1.1301547 0
21.459145 3.1802926 -1.3420352 0
15.508636 -4.4177513 -1.2634469 0
4.4466805 -3.7351773 -0.45398358 0
8.1593113 12.280749 -0.15440644 0
22.288412 14.062942 -1.0492767 0
21.461088 3.0964134 -1.3452023 0
15.492762 -4.4746852 -1.257818 0
4.4332018 -3.7516539 -0.44992921 0
8.209753 12.258954 -0.16738658 0
nan nan nan 0
21.542534 3.0199378 -1.3495367 0
15.54169 -4.5594344 -1.2519543 0
4.3691573 -3.727658 -0.43889448 0
nan nan nan 0
nan nan nan 0
21.40983 2.9213622 -1.3443297 0
15.687761 -4.6648016 -1.2593427 0
4.3260975 -3.7170916 -0.43186477 0
nan nan nan 0
nan nan nan 0
21.370693 2.8362753 -1.3449876 0
15.608927 -4.7036963 -1.2486656 0
4.3202114 -3.7396457 -0.42863086 0
5.5785098 8.1350183 -0.1411801 0
10.066256 6.1468801 -0.49434206 0
21.327215 2.7472141 -1.3378098 0
15.681757 -4.7914019 -1.2501971 0
4.3430705 -3.7900367 -0.42633495 0
5.5854611 8.0814896 -0.15089522 0
10.071403 6.0994582 -0.4996697 0
21.153694 2.6460805 -1.3300432 0
15.90264 -4.922689 -1.2633921 0
4.2769952 -3.760078 -0.41620228 0
5.6150403 8.0669603 -0.15611838 0
10.092407 6.0641303 -0.5058347 0
21.375132 2.6018174 -1.3471891 0
15.852894 -4.9679956 -1.2491455 0
4.23419 -3.7487302 -0.40933868 0
5.6416016 8.0420952 -0.1663263 0
10.154992 6.0463858 -0.51601732 0
21.171627 2.4945872 -1.3374846 0
15.863508 -5.0352488 -1.2455854 0
4.193274 -3.7426398 -0.40288806 0
5.6997032 8.0559406 -0.17914471 0
nan nan nan 0
21.156214 2.4067056 -1.343352 0
16.061916 -5.1692896 -1.2568606 0
4.20575 -3.7815611 -0.400455 0
nan nan nan 0
27.582474 16.1502 -1.4346533 0
21.224649 2.3357244 -1.3434032 0
15.999701 -5.2171474 -1.2476436 0
4.2068548 -3.8105309 -0.39790499 0
nan nan nan 0
27.066328 15.715056 -1.4212223 0
21.163754 2.24681 -1.3427223 0
16.19396 -5.3462353 -1.2583262 0
4.1703429 -3.8067117 -0.39087975 0
15.806355 21.851679 -0.56021476 0
26.944962 15.525345 -1.4175774 0
21.181543 2.1702194 -1.3470683 0
16.335892 -5.4595728 -1.2588115 0
4.1823654 -3.8458817 -0.38734707 0
15.838873 21.728479 -0.58671129 0
27.178408 15.527447 -1.4542285 0
20.856413 2.0596905 -1.3295746 0
16.243954 -5.4982753 -1.2533447 0
4.1391606 -3.8342469 -0.38068756 0
15.891398 21.633518 -0.61383986 0
26.525074 15.007164 -1.4372177 0
21.09741 2.0017228 -1.3481518 0
16.356409 -5.60324 -1.2544966 0
4.1057453 -3.8340316 -0.37410247 0
15.895908 21.474247 -0.63429779 0
26.108809 14.645589 -1.4274549 0
21.089699 1.9230243 -1.3471994 0
16.524652 -5.7286348 -1.2628652 0
4.131876 -3.8868806 -0.37280685 0
15.998149 21.447535 -0.65392721 0
25.886456 14.408216 -1.4178605 0
21.141579 1.8496485 -1.3463525 0
16.451597 -5.7741647 -1.2467322 0
4.0750041 -3.8602817 -0.36495361 0
16.049204 21.352236 -0.68080014 0
25.868254 14.274153 -1.4346629 0
20.938829 1.7582827 -1.3367242 0
16.583181 -5.8821864 -1.2520021 0
4.0610118 -3.8753664 -0.36103481 0
16.13471 21.318439 -0.70010245 0
25.981073 14.212438 -1.4535644 0
20.99464 1.6855006 -1.3435745 0
16.651115 -5.9750805 -1.2525694 0
4.0470057 -3.8904417 -0.35613605 0
16.243963 21.284693 -0.72918874 0
nan nan nan 0
21.020346 1.6100466 -1.3485273 0
16.745661 -6.081686 -1.255179 0
4.0137033 -3.889549 -0.34870049 0
16.30624 21.204691 -0.75185168 0
25.562178 13.735053 -1.4547838 0
20.902451 1.516642 -1.3368901 0
16.782587 -6.171464 -1.2503847 0
3.9996369 -3.9044449 -0.3438229 0
15.749696 20.326351 -0.74970031 0
25.356039 13.50476 -1.4553059 0
21.007685 1.4432113 -1.3432562 0
16.989342 -6.3182797 -1.261148 0
3.9926286 -3.9262855 -0.33955032 0
15.666829 20.06706 -0.76448596 0
24.985142 13.178744 -1.4507424 0
20.913013 1.3597145 -1.3405479 0
16.988914 -6.3924813 -1.2533791 0
3.9776909 -3.9417531 -0.33564091 0
15.625529 19.863638 -0.78098828 0
24.700855 12.924275 -1.4414961 0
20.857857 1.2793751 -1.3403649 0
17.096321 -6.5045285 -1.2566381 0
3.9316311 -3.9247749 -0.3281008 0
15.635035 19.740654 -0.80018437 0
nan nan nan 0
20.917412 1.2024274 -1.3438855 0
17.137955 -6.5923753 -1.2550262 0
3.9350181 -3.9570565 -0.32470492 0
14.220004 17.819469 -0.74433279 0
20.971836 10.773434 -1.2438818 0
20.851295 1.1292658 -1.3430494 0
17.111959 -6.6476016 -1.2450733 0
3.9241536 -3.9751658 -0.32109582 0
14.359961 17.860188 -0.7682479 0
nan nan nan 0
20.69606 1.0447959 -1.3291633 0
17.305346 -6.7993174 -1.2479949 0
3.892282 -3.9718928 -0.31480822 0
15.824512 19.534672 -0.86912131 0
nan nan nan 0
20.848982 0.97227246 -1.3460504 0
17.428881 -6.9217033 -1.2554373 0
3.8848507 -3.9934845 -0.31051162 0
15.895518 19.475946 -0.89105982 0
nan nan nan 0
20.832542 0.88771206 -1.3484026 0
17.517092 -7.0382743 -1.257197 0
3.8516407 -3.9912777 -0.30428016 0
16.017073 19.478699 -0.91590106 0
17.031645 8.4360638 -1.0426594 0
20.736406 0.80748618 -1.3347056 0
17.546415 -7.128428 -1.2446568 0
3.864131 -4.0351138 -0.30062076 0
12.606894 15.217475 -0.73842537 0
17.032043 8.3549728 -1.0506755 0
20.873503 0.73986161 -1.3470159 0
17.675013 -7.2490511 -1.2554771 0
3.8439543 -4.0407839 -0.29716337 0
16.199781 19.409117 -0.97121155 0
17.035112 8.2791557 -1.0589339 0
20.73666 0.65167582 -1.3380057 0
17.706285 -7.3450475 -1.2497027 0
3.8244867 -4.0527744 -0.29106206 0
16.257397 19.333658 -0.99248803 0
17.077997 8.2227564 -1.0763124 0
20.648899 0.57316929 -1.3358188 0
17.827103 -7.4718657 -1.2499908 0
3.8063309 -4.0632677 -0.28691441 0
16.363106 19.315205 -1.0167389 0
17.175093 8.1920996 -1.090528 0
20.655762 0.50120872 -1.3361415 0
13.684128 -5.7916632 -0.95569921 0
3.8052516 -4.0920725 -0.28111693 0
16.407375 19.217356 -1.0369844 0
19.948738 9.4254665 -1.2721649 0
20.647398 0.41808063 -1.3391005 0
13.523605 -5.7878447 -0.93836951 0
3.7734232 -4.0877881 -0.27597708 0
16.496649 19.179123 -1.0602915 0
19.993217 9.3527451 -1.2842979 0
20.638815 0.34223586 -1.3384534 0
13.461528 -5.8197446 -0.92782605 0
3.7740402 -4.1215296 -0.27136374 0
16.56949 19.121597 -1.0825813 0
19.954288 9.2455454 -1.2911662 0
20.754681 0.26807064 -1.3458946 0
13.261041 -5.7936058 -0.91046256 0
3.7604785 -4.134161 -0.26746222 0
16.658672 19.082745 -1.1015484 0
nan nan nan 0
20.705896 0.18792592 -1.3390454 0
13.281529 -5.8606219 -0.90061986 0
3.7273088 -4.130888 -0.26044077 0
16.800306 19.103205 -1.1329685 0
16.376272 7.4423957 -1.0718404 0
20.741373 0.11222272 -1.3413041 0
13.264947 -5.9114838 -0.89332557 0
3.7296524 -4.1626077 -0.25770786 0
16.839855 19.020611 -1.1491469 0
nan nan nan 0
20.716227 0.036156673 -1.346922 0
13.216027 -5.9478374 -0.88895422 0
3.7230444 -4.1889458 -0.25253007 0
16.945368 19.012381 -1.1743096 0
16.776628 7.4869852 -1.1107728 0
20.661591 -0.028849039 -1.3397475 0
13.388716 -6.0762081 -0.89154661 0
3.7107148 -4.2001047 -0.24861747 0
17.01091 18.94566 -1.1962994 0
17.825962 7.8770566 -1.1885712 0
20.551577 -0.10402177 -1.3326298 0
13.416406 -6.1481757 -0.89229977 0
3.6756756 -4.1913052 -0.24242319 0
17.109577 18.902355 -1.2201918 0
17.32642 7.5733275 -1.1631652 0
20.575939 -0.18674642 -1.3342475 0
13.419213 -6.2147632 -0.8863672 0
3.6556799 -4.2024155 -0.23734537 0
17.21517 18.892712 -1.2456046 0
17.659212 7.645483 -1.1904503 0
20.65 -0.25950921 -1.3391005 0
13.462118 -6.2889342 -0.88536865 0
3.7415996 -4.3331556 -0.23894829 0
17.243032 18.784531 -1.2649362 0
17.748821 7.5998216 -1.2045734 0
20.628836 -0.3420704 -1.3378063 0
18.852028 -8.9032631 -1.2313361 0
3.725827 -4.3469968 -0.23395218 0
17.321213 18.724863 -1.2832398 0
16.583736 7.0359626 -1.1302246 0
20.652296 -0.41096789 -1.3430291 0
18.962675 -9.032547 -1.2294769 0
3.6841016 -4.3303351 -0.22735761 0
17.40938 18.682344 -1.3070325 0
17.82478 7.4818673 -1.2230003 0
20.695459 -0.49132958 -1.3459488 0
19.136955 -9.2017689 -1.2317991 0
3.6619098 -4.3363543 -0.22101456 0
17.476791 18.617401 -1.3337736 0
17.289503 7.1827674 -1.1910208 0
20.568829 -0.56376135 -1.3378388 0
19.162058 -9.3004627 -1.2244109 0
3.7295642 -4.4494505 -0.22100659 0
nan nan nan 0
17.642792 7.253829 -1.2235472 0
20.576599 -0.63945609 -1.3384875 0
19.431585 -9.5236416 -1.2325929 0
3.7261355 -4.4786005 -0.21668331 0
16.498842 17.319435 -1.2912831 0
nan nan nan 0
20.613884 -0.71985269 -1.3410828 0
19.616379 -9.7035389 -1.2350665 0
3.7066326 -4.4885182 -0.21141763 0
16.025621 16.699692 -1.2697055 0
9.7111311 3.907788 -0.6805979 0
20.431343 -0.79560685 -1.3294042 0
19.747541 -9.8672867 -1.2342134 0
3.7298849 -4.5537844 -0.20761275 0
15.992262 16.543129 -1.2823907 0
9.7203102 3.8701463 -0.68757778 0
20.428291 -0.87048614 -1.3294042 0
19.88567 -10.027555 -1.2334378 0
3.7321956 -4.5908279 -0.20350717 0
16.076538 16.508791 -1.3004259 0
9.5346012 3.755779 -0.67705584 0
20.454702 -0.95030785 -1.3313508 0
19.809311 -10.080286 -1.2193117 0
3.8221478 -4.7368398 -0.20403965 0
15.532113 15.838736 -1.2713292 0
9.5253754 3.7099588 -0.68076026 0
20.40659 -1.0159001 -1.3284311 0
20.032187 -10.28189 -1.2234071 0
3.8284054 -4.7769222 -0.19987015 0
15.943416 16.1394 -1.3239809 0
9.5107555 3.664175 -0.68232465 0
20.402729 -1.0906872 -1.3284311 0
20.09247 -10.406051 -1.2175275 0
3.7331829 -4.693254 -0.19160455 0
15.822248 15.899758 -1.3247843 0
9.5084248 3.6271114 -0.68842751 0
20.428509 -1.1707458 -1.3268062 0
20.209448 -10.560753 -1.2189708 0
3.8430238 -4.8678584 -0.19273886 0
15.685249 15.646969 -1.3279055 0
9.5361719 3.595813 -0.69121873 0
20.434042 -1.2462198 -1.3274533 0
20.542549 -10.830857 -1.2211257 0
3.8283813 -4.8860269 -0.18531074 0
15.722273 15.558485 -1.3451146 0
9.5360508 3.55211 -0.69730812 0
20.354187 -1.3233809 -1.3226002 0
20.600466 -10.967301 -1.2230912 0
nan nan nan 0
15.552453 15.288689 -1.3415234 0
9.5534573 3.5187745 -0.70120376 0
20.304159 -1.3984402 -1.3196886 0
20.55895 -11.046721 -1.206798 0
nan nan nan 0
15.502866 15.123331 -1.3549943 0
9.5754337 3.4870656 -0.70544821 0
20.304384 -1.4661227 -1.3200121 0
20.61039 -11.162599 -1.2037802 0
nan nan nan 0
15.482059 14.992682 -1.3672458 0
9.6118708 3.4585915 -0.7125234 0
20.233889 -1.542704 -1.3122644 0
19.816931 -10.835971 -1.1441593 0
6.6845942 -8.8002472 -0.29131493 0
15.554024 14.952294 -1.3876573 0
9.6524429 3.433284 -0.71818697 0
20.292757 -1.6220229 -1.3164591 0
19.659544 -10.843699 -1.1255736 0
6.8899875 -9.1466427 -0.28986388 0
nan nan nan 0
nan nan nan 0
20.236658 -1.6957628 -1.3132325 0
19.659624 -10.937913 -1.1121209 0
6.8805089 -9.2040615 -0.28084788 0
14.484454 13.721231 -1.3147 0
16.551569 5.7476759 -1.2405629 0
20.206068 -1.7606949 -1.3116192 0
19.636818 -11.010656 -1.1010737 0
6.9660273 -9.3900309 -0.27349082 0
14.548512 13.681088 -1.3299576 0
16.739517 5.7508087 -1.2656329 0
20.279215 -1.8419845 -1.3132278 0
nan nan nan 0
6.7541285 -9.1677742 -0.25642127 0
13.720925 12.803927 -1.2695413 0
16.818724 5.7026405 -1.2761116 0
20.177612 -1.910899 -1.3071138 0
21.515291 -12.277082 -1.185534 0
6.906126 -9.4533224 -0.253409 0
13.774263 12.759574 -1.2866018 0
16.911007 5.6616259 -1.287712 0
20.220356 -1.9897494 -1.3067855 0
21.613354 -12.43827 -1.1847172 0
6.9243965 -9.5516329 -0.24300246 0
13.717465 12.613856 -1.2900413 0
nan nan nan 0
20.217892 -2.0643544 -1.3071065 0
21.775499 -12.638053 -1.1829238 0
6.9595256 -9.674511 -0.23507363 0
13.666987 12.475301 -1.2972121 0
11.588336 3.7898905 -0.89320898 0
20.070883 -2.1272452 -1.2981207 0
21.95389 -12.849385 -1.1773676 0
6.9880328 -9.7896309 -0.22674672 0
13.525425 12.251208 -1.2953057 0
11.550307 3.728421 -0.89342725 0
20.142084 -2.2094746 -1.306792 0
21.997505 -12.98339 -1.1688479 0
6.8886476 -9.7255859 -0.21427301 0
13.505982 12.152308 -1.3023258 0
11.554093 3.6829383 -0.89692616 0
20.426365 -2.3164568 -1.3257776 0
22.347322 -13.305824 -1.1719466 0
6.9191971 -9.8450203 -0.20373914 0
13.605891 12.143722 -1.3232461 0
11.591633 3.6459327 -0.90301192 0
20.051275 -2.3519354 -1.2913945 0
nan nan nan 0
6.8116746 -9.7679386 -0.19123098 0
12.917788 11.45283 -1.2647401 0
nan nan nan 0
20.171087 -2.4409697 -1.3032393 0
12.417641 -7.5174279 -0.64139026 0
9.1307583 -13.191408 -0.2408237 0
12.152342 10.691134 -1.1971308 0
16.107847 4.9369621 -1.2667656 0
20.058027 -2.5019145 -1.2965183 0
11.887263 -7.2560167 -0.60562354 0
9.0966158 -13.24556 -0.2271767 0
12.05154 10.524345 -1.2002412 0
15.152671 4.5806332 -1.1958129 0
20.112837 -2.587218 -1.2971396 0
11.346093 -6.9828925 -0.57236367 0
9.1354084 -13.407082 -0.2123787 0
12.0704 10.463085 -1.2123115 0
14.805858 4.4166317 -1.1725821 0
20.004286 -2.6478229 -1.2907561 0
10.981178 -6.8139272 -0.54617274 0
9.1114893 -13.477872 -0.20161004 0
12.119361 10.427975 -1.2246088 0
14.826336 4.3636279 -1.1783555 0
20.162771 -2.7440329 -1.2980566 0
10.579443 -6.6184745 -0.52084887 0
9.0398617 -13.478126 -0.18411955 0
12.135582 10.361103 -1.2390282 0
14.22954 4.1286778 -1.1374588 0
20.043592 -2.806242 -1.2875215 0
10.453856 -6.5933404 -0.51153052 0
8.9913235 -13.522787 -0.16722751 0
12.689997 10.754287 -1.3032836 0
14.435905 4.1312504 -1.1580093 0
20.00354 -2.8754268 -1.2856169 0
10.180055 -6.4754233 -0.49090868 0
8.9362698 -13.54742 -0.15296187 0
12.671412 10.658984 -1.3089855 0
14.345012 4.0484147 -1.154754 0
20.140738 -2.9705336 -1.2986932 0
9.7191553 -6.2324028 -0.46170774 0
8.9386559 -13.659697 -0.13676238 0
12.239103 10.218968 -1.2716508 0
14.312035 3.9798408 -1.1560774 0
20.041573 -3.031003 -1.2823509 0
9.4027452 -6.0782533 -0.44186035 0
8.9729977 -13.822486 -0.12080362 0
11.847381 9.8149452 -1.2432407 0
14.335555 3.9298327 -1.1646365 0
20.09367 -3.1178465 -1.2900039 0
9.3304291 -6.0801096 -0.43171957 0
8.8976612 -13.811759 -0.10896709 0
12.132628 9.9764957 -1.2831265 0
14.561483 3.9317164 -1.1923511 0
19.959126 -3.1719284 -1.2785627 0
8.986659 -5.903131 -0.41305283 0
8.86588 -13.873857 -0.091957428 0
11.855542 9.6760378 -1.2635076 0
14.786159 3.9398198 -1.2123593 0
20.070498 -3.2650921 -1.286455 0
8.5902605 -5.6879253 -0.38858575 0
8.8043098 -13.889441 -0.074624784 0
11.934516 9.6643801 -1.2787547 0
14.902693 3.9068682 -1.2260302 0
19.998524 -3.3322539 -1.2862051 0
8.5403776 -5.7000318 -0.38368246 0
8.7214327 -13.870865 -0.062913731 0
11.689541 9.3952732 -1.2593515 0
14.801345 3.8196208 -1.2218468 0
20.001156 -3.4080822 -1.2836137 0
8.1714001 -5.4971657 -0.36112371 0
8.7578831 -14.042796 -0.043327745 0
11.680192 9.3175011 -1.2677885 0
13.950384 3.5455382 -1.1530482 0
19.964169 -3.4771247 -1.2784984 0
7.9901128 -5.4178519 -0.34723872 0
8.7195225 -14.096087 -0.028928814 0
11.705406 9.2676144 -1.2825783 0
14.722185 3.6815717 -1.2263259 0
19.862022 -3.5379651 -1.2763528 0
7.7516537 -5.2977376 -0.33443561 0
8.6678066 -14.127965 -0.017357295 0
11.309292 8.8835649 -1.2455436 0
14.730116 3.6262426 -1.2338662 0
19.834412 -3.6080997 -1.2718871 0
7.3899288 -5.0922618 -0.31339747 0
8.6681767 -14.256645 0.0029120818 0
11.447965 8.9312658 -1.2677608 0
14.505161 3.5172081 -1.2166095 0
19.728054 -3.6635017 -1.2624034 0
7.3507833 -5.105123 -0.30940098 0
6.3131022 -10.457094 0.012791516 0
11.097741 8.5927887 -1.2378234 0
14.885508 3.5517194 -1.2581657 0
19.797403 -3.755075 -1.2642236 0
7.2585073 -5.0805736 -0.30010611 0
6.2721572 -10.475862 0.021310458 0
11.078621 8.5101452 -1.2418661 0
13.496199 3.16799 -1.1421843 0
19.783291 -3.8275685 -1.2677405 0
7.0889177 -5.0006809 -0.2877869 0
6.2274857 -10.496625 0.03621291 0
10.562173 8.0520477 -1.1946778 0
13.376582 3.0857682 -1.1382871 0
19.779139 -3.9020271 -1.2648497 0
6.940289 -4.9340301 -0.27950969 0
6.2244444 -10.579673 0.049274877 0
11.091481 8.3914652 -1.2584019 0
13.528335 3.0685964 -1.1551113 0
19.867659 -3.9951985 -1.2678876 0
6.8776293 -4.9275312 -0.27179879 0
8.5565462 -14.666269 0.080016069 0
10.819906 8.120863 -1.2383273 0
13.656543 3.0425901 -1.1675111 0
19.627087 -4.0252924 -1.2570226 0
6.9447627 -5.0142508 -0.26919019 0
8.5377417 -14.758042 0.098200396 0
10.561237 7.8663702 -1.2170042 0
13.920095 3.0477993 -1.196593 0
19.602859 -4.0952506 -1.2494062 0
6.8981252 -5.0191426 -0.265113 0
8.5284338 -14.861397 0.11364279 0
10.510256 7.76583 -1.2214874 0
14.476206 3.1113586 -1.2563746 0
19.572863 -4.1639109 -1.2519648 0
6.8153086 -4.9971914 -0.25820312 0
8.3922567 -14.749058 0.12735721 0
10.662581 7.8181286 -1.2428356 0
13.980133 2.9511731 -1.2173976 0
19.478909 -4.2221661 -1.2434908 0
6.7649345 -4.9984832 -0.25110948 0
8.3822927 -14.857977 0.14589727 0
10.537161 7.6669397 -1.2387011 0
13.673157 2.8340633 -1.197118 0
19.487457 -4.2988596 -1.2485305 0
6.7385507 -5.0172744 -0.25081107 0
8.3326092 -14.897234 0.15789942 0
10.127225 7.3147378 -1.1985035 0
13.810246 2.8072162 -1.2156014 0
19.418011 -4.3582349 -1.2450962 0
6.7602324 -5.0720372 -0.24640298 0
8.2681828 -14.910059 0.17259265 0
9.978838 7.1520519 -1.1929717 0
13.824699 2.7574296 -1.2234125 0
19.225788 -4.3926997 -1.2372986 0
6.7606726 -5.1130567 -0.24565212 0
8.2784367 -15.058418 0.18895513 0
nan nan nan 0
nan nan nan 0
19.136017 -4.4460492 -1.2428892 0
6.7340388 -5.1318202 -0.24092941 0
8.2305269 -15.095854 0.20406957 0
nan nan nan 0
13.612264 2.6607523 -1.2378529 0
nan nan nan 0
nan nan nan 0
8.2232199 -15.088717 0.18295678 0
9.8755112 7.0779953 -1.2084531 0
13.52364 2.6949267 -1.2379619 0
18.253998 -4.1706657 -1.2338258 0
6.293818 -4.7599773 -0.24798793 0
8.2568913 -15.019229 0.16153829 0
10.038327 7.2531948 -1.2252271 0
13.619914 2.7685275 -1.255075 0
18.185356 -4.0849085 -1.2445025 0
6.1191273 -4.592701 -0.2497969 0
8.2659283 -14.905992 0.13386974 0
10.265438 7.4747138 -1.2518067 0
13.321976 2.7588484 -1.2285435 0
18.21418 -4.0213132 -1.2552686 0
6.2110443 -4.6278834 -0.26100823 0
8.3010521 -14.840816 0.11278059 0
9.2124624 6.7573295 -1.1222457 0
13.432881 2.8356495 -1.2421818 0
17.92568 -3.8887708 -1.2472597 0
6.1915803 -4.5781846 -0.26755667 0
8.3210573 -14.749434 0.091626719 0
10.236749 7.566503 -1.2414201 0
13.685511 2.9414151 -1.2640687 0
17.901234 -3.8115561 -1.2477405 0
6.2202525 -4.5642171 -0.27346379 0
8.4170361 -14.798616 0.07131394 0
10.688228 7.9609571 -1.2950052 0
13.717896 3.0035276 -1.2681159 0
17.841204 -3.7304714 -1.2521832 0
6.394238 -4.6559238 -0.28865445 0
8.4190063 -14.676644 0.053155657 0
10.484238 7.8775125 -1.2673453 0
13.196644 2.9401276 -1.2185391 0
17.697752 -3.6328268 -1.250677 0
6.4312611 -4.6469083 -0.29787523 0
8.482893 -14.651435 0.029548408 0
10.60165 8.020874 -1.2753795 0
13.083789 2.9653606 -1.2091138 0
17.603352 -3.5430639 -1.2524825 0
6.7525716 -4.8415003 -0.31919461 0
8.5844498 -14.702304 0.0089142686 0
10.365326 7.9048429 -1.2459997 0
13.072102 3.0155294 -1.2114553 0
17.581322 -3.4716299 -1.2594306 0
6.8230114 -4.8542399 -0.32753578 0
8.587532 -14.590379 -0.0088645266 0
10.459151 8.0371971 -1.2538418 0
13.123988 3.0782034 -1.2173014 0
17.421896 -3.3738527 -1.256454 0
6.9874034 -4.9327245 -0.34352812 0
6.1987109 -10.443971 -0.021197012 0
10.331914 7.9998221 -1.232891 0
13.431972 3.2049019 -1.2445705 0
17.428814 -3.3089638 -1.2622935 0
7.1443605 -5.0043936 -0.35644019 0
6.2497702 -10.442604 -0.036109064 0
10.501946 8.1961679 -1.2475443 0
12.713957 3.0828772 -1.1744766 0
17.274462 -3.2109888 -1.2532943 0
7.1910591 -4.9979162 -0.36704007 0
6.2724786 -10.393904 -0.048732951 0
10.460776 8.2259083 -1.2368555 0
13.263114 3.2700083 -1.2239537 0
17.265841 -3.143961 -1.2610605 0
7.4065142 -5.1075044 -0.38337132 0
6.3260961 -10.396422 -0.061597642 0
10.589596 8.3932095 -1.2487522 0
12.937034 3.2399583 -1.19495 0
17.202955 -3.0674107 -1.2648349 0
7.6722636 -5.2493758 -0.40425587 0
8.6599483 -14.120685 -0.10408028 0
10.761414 8.5937986 -1.267871 0
13.349586 3.3953235 -1.2366207 0
17.116131 -2.9841647 -1.2606479 0
7.9061246 -5.3669472 -0.42222282 0
8.743125 -14.139761 -0.12476805 0
9.8694515 7.9409161 -1.1550573 0
13.356154 3.4516494 -1.2335937 0
17.082275 -2.91379 -1.2634404 0
8.1698036 -5.5023074 -0.44555989 0
8.7525091 -14.039636 -0.13860545 0
10.694282 8.6724272 -1.2457862 0
13.781772 3.6155801 -1.2741196 0
16.993814 -2.8346426 -1.2651898 0
